ply
format ascii 1.0
comment Created by CloudCompare v2.10.3 (Zephyrus)
comment Created 28.11.21 12:40
obj_info Generated by CloudCompare!
element vertex 777
property float x
property float y
property float z
property float nx
property float ny
property float nz
end_header
-0.00030728 -0.0451354 0.103878 -0.00120871 0.276796 -0.960928 
0.0103098 -0.0550137 0.101032 -0.00120871 0.276796 -0.960928 
-0.0152148 -0.0127765 0.1132 -0.00120871 0.276796 -0.960928 
0.000435387 -0.042663 0.10459 -0.00120871 0.276796 -0.960928 
-0.00817943 -0.0526331 0.101718 -0.00120871 0.276796 -0.960928 
-0.0138727 -0.0261919 0.109335 -0.00120871 0.276796 -0.960928 
-0.0172216 -0.0445699 0.104041 0.00120871 0.276796 -0.960928 
-0.0217764 -0.0167678 0.11205 0.00120871 0.276796 -0.960928 
-0.0263713 -0.0132476 0.113064 0.00120871 0.276796 -0.960928 
-0.0124635 -0.0499653 0.102486 0.00120871 0.276796 -0.960928 
-0.0216879 -0.07261 0.0959624 0.00120871 0.276796 -0.960928 
-0.0108552 -0.083181 0.0929173 0.00120871 0.276796 -0.960928 
-0.0217424 -0.0754984 0.0951303 0.00120871 0.276796 -0.960928 
-0.0238352 -0.0443389 0.104107 0.00120871 0.276796 -0.960928 
-0.0302161 -0.0570978 0.100431 0.00120871 0.276796 -0.960928 
-0.0378974 -0.0635518 0.0985717 -0.00120871 0.276796 -0.960928 
-0.0435179 -0.0459872 0.103632 -0.00120871 0.276796 -0.960928 
-0.0402886 -0.0501953 0.10242 -0.00120871 0.276796 -0.960928 
-0.0334889 -0.067883 0.0973239 -0.00120871 0.276796 -0.960928 
-0.0346979 -0.0573723 0.100352 -0.00120871 0.276796 -0.960928 
-0.0376141 -0.049422 0.102642 -0.00120871 0.276796 -0.960928 
-0.0439553 -0.00737651 0.114756 -0.00120871 0.276796 -0.960928 
-0.0355041 -0.00642288 0.11503 -0.00120871 0.276796 -0.960928 
-0.0420701 -0.0267811 0.109165 -0.00120871 0.276796 -0.960928 
0.0213166 -0.119002 0.223269 0.140973 -0.989105 -0.0424066 
0.013895 -0.120415 0.231451 0.140973 -0.989105 -0.0424066 
-0.00147816 -0.122318 0.224269 0.140973 -0.989105 -0.0424066 
0.0149878 -0.120369 0.234058 0.140973 -0.989105 -0.0424066 
0.000334908 -0.122408 0.232516 0.140973 -0.989105 -0.0424066 
-0.0412204 -0.0193908 0.254016 -0.383115 -0.0246752 0.923371 
-0.0338577 -0.0700454 0.255741 -0.383115 -0.0246752 0.923371 
-0.00761639 -0.00877758 0.268212 -0.383115 -0.0246752 0.923371 
-0.0343796 -0.0221613 0.256777 -0.383115 -0.0246752 0.923371 
-0.00612755 -0.0103135 0.268789 -0.383115 -0.0246752 0.923371 
-0.0215603 0.000264438 0.262673 -0.383115 -0.0246752 0.923371 
-0.0243855 -0.0410975 0.260421 -0.383115 -0.0246752 0.923371 
-0.0379253 -0.0697192 0.254065 -0.383115 -0.0246752 0.923371 
-0.0249492 -0.0142428 0.26089 -0.383115 -0.0246752 0.923371 
-0.0387707 -0.0240133 0.25491 -0.383115 -0.0246752 0.923371 
-0.0379418 -0.0110187 0.255593 -0.383115 -0.0246752 0.923371 
-0.0387232 -0.0732924 0.253641 -0.383115 -0.0246752 0.923371 
-0.0363084 -0.00178593 0.256511 -0.383115 -0.0246752 0.923371 
-0.00928003 -0.00045596 0.267741 -0.383115 -0.0246752 0.923371 
-0.0428545 -0.0315465 0.253021 -0.383115 -0.0246752 0.923371 
0.0241294 -0.0162008 0.261205 0.382221 -0.0220263 0.923808 
0.0421797 -0.00327058 0.254021 0.382221 -0.0220263 0.923808 
0.0200824 -0.00505695 0.263133 0.382221 -0.0220263 0.923808 
0.0223647 -0.0236303 0.261767 0.382221 -0.0220263 0.923808 
0.020572 -0.0547059 0.261805 0.382221 -0.0220263 0.923808 
0.0132947 -0.0767343 0.26432 0.382221 -0.0220263 0.923808 
0.0398719 -0.00366237 0.254968 0.382221 -0.0220263 0.923808 
0.0158018 -0.0742102 0.263339 0.382221 -0.0220263 0.923808 
0.0124982 -0.0516807 0.265218 0.382221 -0.0220263 0.923808 
0.0087671 -0.0436559 0.266945 0.382221 -0.0220263 0.923808 
0.0168657 -0.0768935 0.262837 0.382221 -0.0220263 0.923808 
0.0210042 -0.0635082 0.261427 0.382221 -0.0220263 0.923808 
0.0105178 -0.022003 0.266711 0.382221 -0.0220263 0.923808 
0.0186116 -0.0514231 0.262692 0.382221 -0.0220263 0.923808 
0.0267186 -0.0130708 0.260203 0.382221 -0.0220263 0.923808 
-0.0558862 -0.0819875 0.168864 -0.926293 -0.339501 -0.163463 
-0.0584891 -0.0903773 0.201004 -0.926293 -0.339501 -0.163463 
-0.0543037 -0.0725283 0.140276 -0.926293 -0.339501 -0.163463 
-0.0618505 -0.0629483 0.163071 -0.926293 -0.339501 -0.163463 
-0.0541626 -0.0713857 0.137106 -0.926293 -0.339501 -0.163463 
-0.0546429 -0.0746856 0.146673 -0.926293 -0.339501 -0.163463 
-0.0637903 -0.0598329 0.167574 -0.926293 -0.339501 -0.163463 
-0.0598785 -0.0841131 0.195857 -0.926293 -0.339501 -0.163463 
-0.0675269 -0.0626489 0.194554 -0.926293 -0.339501 -0.163463 
-0.0555668 -0.0905843 0.184905 -0.926293 -0.339501 -0.163463 
-0.056415 -0.0696796 0.146303 -0.926293 -0.339501 -0.163463 
-0.0621781 -0.0673148 0.173988 -0.926293 -0.339501 -0.163463 
-0.0632623 -0.0544462 0.153405 -0.926293 -0.339501 -0.163463 
-0.05718 -0.0803509 0.172784 -0.926293 -0.339501 -0.163463 
-0.0570689 -0.0610252 0.132035 -0.926293 -0.339501 -0.163463 
-0.0550469 -0.0937107 0.188455 -0.926293 -0.339501 -0.163463 
-0.0562708 -0.068903 0.143876 -0.926293 -0.339501 -0.163463 
-0.0553845 -0.0575255 0.115242 -0.926293 -0.339501 -0.163463 
0.0587775 -0.076882 0.174155 0.926753 -0.332285 -0.175256 
0.0515533 -0.0646114 0.112621 0.926753 -0.332285 -0.175256 
0.0524355 -0.0684998 0.124677 0.926753 -0.332285 -0.175256 
0.0549457 -0.0648163 0.130957 0.926753 -0.332285 -0.175256 
0.0574198 -0.0609693 0.136735 0.926753 -0.332285 -0.175256 
0.0519432 -0.0697151 0.124382 0.926753 -0.332285 -0.175256 
0.0501751 -0.0702801 0.116102 0.926753 -0.332285 -0.175256 
0.060166 -0.0766117 0.180987 0.926753 -0.332285 -0.175256 
0.0581366 -0.0883592 0.192574 0.926753 -0.332285 -0.175256 
0.0526354 -0.0620119 0.113406 0.926753 -0.332285 -0.175256 
0.0679188 -0.0586778 0.187923 0.926753 -0.332285 -0.175256 
0.0526462 -0.0935739 0.173438 0.926753 -0.332285 -0.175256 
0.0629592 -0.067386 0.178233 0.926753 -0.332285 -0.175256 
0.0539746 -0.0673923 0.130714 0.926753 -0.332285 -0.175256 
0.0591465 -0.0778346 0.177917 0.926753 -0.332285 -0.175256 
0.0585101 -0.0698765 0.159429 0.926753 -0.332285 -0.175256 
0.0670131 -0.0562657 0.178548 0.926753 -0.332285 -0.175256 
0.05892 -0.0773869 0.175869 0.926753 -0.332285 -0.175256 
-0.0612615 -0.000527277 0.198319 -0.507772 0.844301 -0.171243 
-0.0513695 -0.0117815 0.113957 -0.507772 0.844301 -0.171243 
-0.0593118 -0.00423998 0.174368 -0.507772 0.844301 -0.171243 
-0.0374562 -0.00235572 0.11906 -0.507772 0.844301 -0.171243 
-0.0549863 -0.00562322 0.154816 -0.507772 0.844301 -0.171243 
-0.0398373 0.0015728 0.145343 -0.507772 0.844301 -0.171243 
-0.0510662 -0.00380936 0.152128 -0.507772 0.844301 -0.171243 
-0.0487558 0.00310381 0.179183 -0.507772 0.844301 -0.171243 
-0.0556803 0.00276435 0.197968 -0.507772 0.844301 -0.171243 
-0.0421234 -0.00229673 0.133132 -0.507772 0.844301 -0.171243 
-0.0415912 0.00338815 0.159418 -0.507772 0.844301 -0.171243 
0.0316067 -0.117727 0.235477 0.295238 -0.585689 0.754853 
0.0108937 -0.107613 0.251427 0.295238 -0.585689 0.754853 
0.0184137 -0.109494 0.247028 0.295238 -0.585689 0.754853 
0.00608417 -0.108131 0.252903 0.295238 -0.585689 0.754853 
0.0110752 -0.114099 0.246315 0.295238 -0.585689 0.754853 
0.0548973 -0.0174828 0.11506 0.673996 0.711182 -0.199875 
0.0552083 -0.0161141 0.120955 0.673996 0.711182 -0.199875 
0.0652312 0.00159306 0.217395 0.673996 0.711182 -0.199875 
0.0507972 -0.010282 0.126791 0.673996 0.711182 -0.199875 
0.0530331 -0.00962954 0.136619 0.673996 0.711182 -0.199875 
0.0385367 0.00081654 0.124898 0.673996 0.711182 -0.199875 
0.0639614 0.000211945 0.208232 0.673996 0.711182 -0.199875 
0.0476948 0.0023071 0.160968 0.673996 0.711182 -0.199875 
0.0477002 -0.00852805 0.122594 0.673996 0.711182 -0.199875 
0.0558656 -0.0120617 0.137524 0.673996 0.711182 -0.199875 
0.0383638 0.000860489 0.124472 0.673996 0.711182 -0.199875 
-0.00622307 -0.122443 0.229422 -0.181148 -0.982872 0.0338921 
-0.0199006 -0.120182 0.222343 -0.181148 -0.982872 0.0338921 
-0.0292476 -0.118033 0.234848 -0.181148 -0.982872 0.0338921 
-0.0343407 -0.117269 0.229978 -0.181148 -0.982872 0.0338921 
-0.0100512 -0.121955 0.223264 -0.181148 -0.982872 0.0338921 
0.00320938 -0.0919823 0.106409 0.220434 -0.933684 -0.282211 
-0.00419332 -0.115671 0.179266 0.220434 -0.933684 -0.282211 
0.00393532 -0.107753 0.159355 0.220434 -0.933684 -0.282211 
-0.00101632 -0.114733 0.178647 0.220434 -0.933684 -0.282211 
0.0052084 -0.112824 0.177199 0.220434 -0.933684 -0.282211 
0.0246883 -0.112978 0.193016 0.220434 -0.933684 -0.282211 
0.0252564 -0.110339 0.184698 0.220434 -0.933684 -0.282211 
0.0310237 -0.100286 0.155842 0.220434 -0.933684 -0.282211 
0.00586953 -0.0967141 0.124215 0.220434 -0.933684 -0.282211 
0.034803 -0.108476 0.186011 0.220434 -0.933684 -0.282211 
0.0196919 -0.0972878 0.136981 0.220434 -0.933684 -0.282211 
0.0432185 -0.105953 0.184245 0.220434 -0.933684 -0.282211 
-0.00979499 -0.118359 0.18379 0.220434 -0.933684 -0.282211 
0.0125794 -0.096132 0.127554 0.220434 -0.933684 -0.282211 
0.0131635 -0.112538 0.182498 0.220434 -0.933684 -0.282211 
-0.00645372 -0.110962 0.16185 0.220434 -0.933684 -0.282211 
0.0144861 -0.103785 0.154469 0.220434 -0.933684 -0.282211 
0.031656 -0.105875 0.1749 0.220434 -0.933684 -0.282211 
0.00177359 -0.111772 0.171004 0.220434 -0.933684 -0.282211 
0.00931678 -0.109755 0.170234 0.220434 -0.933684 -0.282211 
0.0269383 -0.107116 0.175316 0.220434 -0.933684 -0.282211 
-0.0519624 -0.0913616 0.171914 -0.763755 -0.579564 -0.284225 
-0.0366103 -0.0800233 0.107305 -0.763755 -0.579564 -0.284225 
-0.0495445 -0.101577 0.186307 -0.763755 -0.579564 -0.284225 
-0.0459984 -0.0677171 0.107427 -0.763755 -0.579564 -0.284225 
-0.0471781 -0.0733251 0.122089 -0.763755 -0.579564 -0.284225 
-0.0493123 -0.0843238 0.15036 -0.763755 -0.579564 -0.284225 
-0.0509345 -0.103041 0.193052 -0.763755 -0.579564 -0.284225 
-0.0531811 -0.0946472 0.181927 -0.763755 -0.579564 -0.284225 
-0.0449017 -0.0765756 0.122605 -0.763755 -0.579564 -0.284225 
-0.0426539 -0.0917966 0.147704 -0.763755 -0.579564 -0.284225 
-0.0455998 -0.0862821 0.144358 -0.763755 -0.579564 -0.284225 
-0.0385499 -0.0850407 0.122806 -0.763755 -0.579564 -0.284225 
0.0509476 -0.0890356 0.232049 0.939959 -0.293135 0.17478 
0.0500887 -0.0893998 0.236042 0.939959 -0.293135 0.17478 
0.0530392 -0.0960048 0.209214 0.939959 -0.293135 0.17478 
0.0661339 -0.0633015 0.193649 0.939959 -0.293135 0.17478 
0.0531815 -0.0813546 0.232901 0.939959 -0.293135 0.17478 
0.0693933 -0.0540047 0.191705 0.939959 -0.293135 0.17478 
0.0550415 -0.0838836 0.218718 0.939959 -0.293135 0.17478 
0.0519111 -0.101099 0.206756 0.939959 -0.293135 0.17478 
0.0574826 -0.0782163 0.215099 0.939959 -0.293135 0.17478 
0.0665209 -0.0388413 0.160507 0.968498 -0.0974828 -0.229148 
0.0584757 -0.0523681 0.132332 0.968498 -0.0974828 -0.229148 
0.0584697 -0.0308274 0.123235 0.968498 -0.0974828 -0.229148 
0.0551907 -0.0554899 0.119815 0.968498 -0.0974828 -0.229148 
0.0673923 -0.0383253 0.163958 0.968498 -0.0974828 -0.229148 
0.058715 -0.0481732 0.131573 0.968498 -0.0974828 -0.229148 
0.0613075 -0.0522344 0.144198 0.968498 -0.0974828 -0.229148 
0.0590843 -0.0454047 0.131961 0.968498 -0.0974828 -0.229148 
0.064253 -0.0488585 0.155177 0.968498 -0.0974828 -0.229148 
0.0561773 -0.0466751 0.120257 0.968498 -0.0974828 -0.229148 
0.0580881 -0.0529575 0.130948 0.968498 -0.0974828 -0.229148 
0.00780944 -0.0670557 0.265468 -0.208007 -0.109676 0.971959 
-0.00583509 -0.0593244 0.26343 -0.208007 -0.109676 0.971959 
-0.011843 -0.0859007 0.259111 -0.208007 -0.109676 0.971959 
-0.0215359 -0.0855578 0.257076 -0.208007 -0.109676 0.971959 
-0.0224468 -0.0684699 0.25883 -0.208007 -0.109676 0.971959 
-0.00998966 -0.0754136 0.260705 -0.208007 -0.109676 0.971959 
-0.0195261 -0.0811792 0.258005 -0.208007 -0.109676 0.971959 
-0.0201936 -0.0666299 0.259523 -0.208007 -0.109676 0.971959 
-0.0298316 -0.0867711 0.255161 -0.208007 -0.109676 0.971959 
-0.00131835 -0.0165468 0.269278 -0.208007 -0.109676 0.971959 
-0.0112058 -0.0393428 0.26456 -0.208007 -0.109676 0.971959 
-0.0161946 -0.0432692 0.263044 -0.208007 -0.109676 0.971959 
-0.0101511 -0.066349 0.261704 -0.208007 -0.109676 0.971959 
-0.00714207 -0.0552877 0.263611 -0.208007 -0.109676 0.971959 
0.00930974 -0.0870996 0.263502 -0.208007 -0.109676 0.971959 
-0.0604562 -0.0332596 0.135971 -0.976826 0.0544699 -0.206986 
-0.0545981 -0.0181804 0.112348 -0.976826 0.0544699 -0.206986 
-0.0668907 -0.0452508 0.163134 -0.976826 0.0544699 -0.206986 
-0.0569418 -0.0413912 0.117229 -0.976826 0.0544699 -0.206986 
-0.0561735 -0.0439145 0.112933 -0.976826 0.0544699 -0.206986 
-0.0635452 -0.0426591 0.148042 -0.976826 0.0544699 -0.206986 
-0.0546692 -0.0450055 0.105546 -0.976826 0.0544699 -0.206986 
-0.0628103 -0.0332496 0.147078 -0.976826 0.0544699 -0.206986 
-0.0548692 -0.0321758 0.109903 -0.976826 0.0544699 -0.206986 
-0.0673739 -0.040897 0.166572 -0.976826 0.0544699 -0.206986 
-0.0544207 -0.0318502 0.107874 -0.976826 0.0544699 -0.206986 
0.0439456 -0.0927114 0.244353 0.456564 -0.450018 0.767485 
0.0391847 -0.114052 0.234639 0.456564 -0.450018 0.767485 
0.0196515 -0.0911086 0.259719 0.456564 -0.450018 0.767485 
0.0401609 -0.0965463 0.244347 0.456564 -0.450018 0.767485 
0.0643067 -0.0256924 0.218508 0.942084 -0.0996563 0.320229 
0.0602382 -0.0397214 0.226161 0.942084 -0.0996563 0.320229 
0.0623256 -0.0376962 0.220632 0.942084 -0.0996563 0.320229 
0.0580111 -0.0571928 0.227317 0.942084 -0.0996563 0.320229 
0.0599469 -0.0354746 0.228336 0.942084 -0.0996563 0.320229 
0.0660621 -0.00742926 0.21899 0.942084 -0.0996563 0.320229 
0.0593925 -0.0501396 0.225428 0.942084 -0.0996563 0.320229 
0.060547 -0.0312703 0.227869 0.942084 -0.0996563 0.320229 
0.0689534 -0.0325532 0.202677 0.942084 -0.0996563 0.320229 
0.0711597 -0.0465488 0.191833 0.942084 -0.0996563 0.320229 
0.0687452 -0.0285626 0.204528 0.942084 -0.0996563 0.320229 
0.0573184 -0.045695 0.232922 0.942084 -0.0996563 0.320229 
0.0585873 -0.068253 0.22219 0.942084 -0.0996563 0.320229 
-0.0449833 -0.050046 0.251206 -0.878013 -0.100385 0.467991 
-0.0548376 -0.0264776 0.23776 -0.878013 -0.100385 0.467991 
-0.0501984 -0.0439166 0.242725 -0.878013 -0.100385 0.467991 
-0.0634833 0.0025173 0.227753 -0.878013 -0.100385 0.467991 
-0.0480134 -0.0322987 0.249331 -0.878013 -0.100385 0.467991 
-0.0514188 -0.0394853 0.241385 -0.878013 -0.100385 0.467991 
-0.0535141 -0.0089292 0.244024 -0.878013 -0.100385 0.467991 
-0.052195 -0.0204952 0.244013 -0.878013 -0.100385 0.467991 
-0.0201819 -0.114832 0.242104 -0.297059 -0.541696 0.786334 
-0.0244209 -0.111641 0.242712 -0.297059 -0.541696 0.786334 
-0.036067 -0.0945456 0.250125 -0.297059 -0.541696 0.786334 
-0.0236211 -0.111065 0.243409 -0.297059 -0.541696 0.786334 
-0.0377363 -0.115471 0.223565 -0.364742 -0.924833 -0.10792 
-0.0212646 -0.11939 0.201414 -0.364742 -0.924833 -0.10792 
-0.0397688 -0.112983 0.209103 -0.364742 -0.924833 -0.10792 
-0.026106 -0.117457 0.201226 -0.364742 -0.924833 -0.10792 
-0.0497864 -0.106481 0.218828 -0.853089 -0.314296 0.416481 
-0.0427818 -0.100213 0.237843 -0.853089 -0.314296 0.416481 
-0.0437208 -0.0975044 0.237958 -0.853089 -0.314296 0.416481 
-0.00943042 -0.0858342 0.0931268 -0.285505 -0.900893 -0.326925 
-0.00692635 -0.0871991 0.0946911 -0.285505 -0.900893 -0.326925 
-0.0061348 -0.0975347 0.122481 -0.285505 -0.900893 -0.326925 
-0.0202772 -0.0890092 0.111394 -0.285505 -0.900893 -0.326925 
-0.0105439 -0.106596 0.151321 -0.285505 -0.900893 -0.326925 
-0.0204715 -0.0844347 0.0989574 -0.285505 -0.900893 -0.326925 
-0.00721284 -0.0912405 0.10608 -0.285505 -0.900893 -0.326925 
-0.0185121 -0.0970906 0.132117 -0.285505 -0.900893 -0.326925 
-0.0108884 -0.119327 0.186708 -0.285505 -0.900893 -0.326925 
-0.0114576 -0.118481 0.184878 -0.285505 -0.900893 -0.326925 
-0.00789541 -0.101285 0.134362 -0.285505 -0.900893 -0.326925 
0.0259615 -0.118174 0.223076 0.227849 -0.960126 -0.161997 
0.0157375 -0.119202 0.214793 0.227849 -0.960126 -0.161997 
0.00179972 -0.120256 0.201458 0.227849 -0.960126 -0.161997 
0.0350447 -0.117059 0.229233 0.227849 -0.960126 -0.161997 
0.0198841 -0.115806 0.200524 0.227849 -0.960126 -0.161997 
0.0084625 -0.118235 0.198853 0.227849 -0.960126 -0.161997 
0.0400329 -0.11219 0.207423 0.227849 -0.960126 -0.161997 
0.0258765 -0.081186 0.257719 0.486307 -0.0710649 0.870893 
0.0360953 -0.0418144 0.255217 0.486307 -0.0710649 0.870893 
0.0355496 -0.0768951 0.25266 0.486307 -0.0710649 0.870893 
0.0476233 -0.0340509 0.249405 0.486307 -0.0710649 0.870893 
0.0402451 -0.063458 0.251131 0.486307 -0.0710649 0.870893 
0.0323588 -0.0742646 0.254659 0.486307 -0.0710649 0.870893 
0.041416 -0.0217227 0.253881 0.486307 -0.0710649 0.870893 
0.0434166 -0.0809893 0.247928 0.486307 -0.0710649 0.870893 
0.0176036 -0.083016 0.262196 0.486307 -0.0710649 0.870893 
0.0231862 -0.0817145 0.25918 0.486307 -0.0710649 0.870893 
-0.046009 0.0406092 -0.0185 0.000977516 0.000977516 -0.999999 
-0.0518935 0.0380784 -0.0185 0.000977516 0.000977516 -0.999999 
-0.00637943 0.0612099 -0.0185 0.000977516 0.000977516 -0.999999 
-0.0182483 0.0531409 -0.0185 0.000977516 0.000977516 -0.999999 
-0.0255313 0.0524407 -0.0185 0.000977516 0.000977516 -0.999999 
-0.0214167 0.0494324 -0.0185 0.000977516 0.000977516 -0.999999 
0.0293437 0.0485697 -0.0185 0.000977516 0.000977516 -0.999999 
0.0100215 0.0401776 -0.0185 0.000977516 0.000977516 -0.999999 
0.0180316 0.0589891 -0.0185 0.000977516 0.000977516 -0.999999 
0.0366878 0.0547709 -0.0185 0.000977516 0.000977516 -0.999999 
0.0102472 0.0540257 -0.0185 0.000977516 0.000977516 -0.999999 
-0.0135695 0.0416364 -0.0185 0.000977516 0.000977516 -0.999999 
-0.0359021 0.0380919 -0.0185 0.000977516 0.000977516 -0.999999 
0.00265976 0.0403305 -0.0185 0.000977516 0.000977516 -0.999999 
0.0419699 0.0382255 -0.0185 0.000977516 0.000977516 -0.999999 
-0.0206587 0.0409392 -0.0185 0.000977516 0.000977516 -0.999999 
0.0369567 0.0422726 -0.0185 0.000977516 0.000977516 -0.999999 
0.0538049 0.0203081 -0.0185 0.000977516 0.000977516 -0.999999 
0.0413696 0.023252 -0.0185 0.000977516 0.000977516 -0.999999 
0.0229235 0.029617 -0.0185 0.000977516 0.000977516 -0.999999 
0.038357 0.0318506 -0.0185 0.000977516 0.000977516 -0.999999 
0.036656 0.00999192 -0.0185 0.000977516 0.000977516 -0.999999 
0.0578067 0.0127923 -0.0185 0.000977516 0.000977516 -0.999999 
-0.0335702 0.0266214 -0.0185 0.000977516 0.000977516 -0.999999 
0.0410605 0.0322548 -0.0185 0.000977516 0.000977516 -0.999999 
-0.00900536 0.0227429 -0.0185 0.000977516 0.000977516 -0.999999 
0.0215056 0.0169964 -0.0185 0.000977516 0.000977516 -0.999999 
-0.0402912 0.0227197 -0.0185 0.000977516 0.000977516 -0.999999 
-0.00801151 0.0224177 -0.0185 0.000977516 0.000977516 -0.999999 
-0.00379514 0.0159188 -0.0185 0.000977516 0.000977516 -0.999999 
0.0250393 0.0111032 -0.0185 0.000977516 0.000977516 -0.999999 
0.0393727 0.0304708 -0.0185 0.000977516 0.000977516 -0.999999 
0.0118844 0.00722174 -0.0185 0.000977516 0.000977516 -0.999999 
0.0467741 -0.0145576 -0.0185 0.000977516 0.000977516 -0.999999 
-0.0334438 0.0201508 -0.0185 0.000977516 0.000977516 -0.999999 
-0.00649384 0.00980693 -0.0185 0.000977516 0.000977516 -0.999999 
0.0163461 0.00999796 -0.0185 0.000977516 0.000977516 -0.999999 
0.0614721 -0.0130603 -0.0185 0.000977516 0.000977516 -0.999999 
0.0463262 -0.000711834 -0.0185 0.000977516 0.000977516 -0.999999 
0.0181769 0.000164641 -0.0185 0.000977516 0.000977516 -0.999999 
0.0116165 0.00106529 -0.0185 0.000977516 0.000977516 -0.999999 
0.061829 -0.0142516 -0.0185 0.000977516 0.000977516 -0.999999 
0.0365462 -0.00498761 -0.0185 0.000977516 0.000977516 -0.999999 
0.0345652 -0.0509292 -0.0185 0.000977516 0.000977516 -0.999999 
-0.0252064 0.0113133 -0.0185 0.000977516 0.000977516 -0.999999 
-0.00523616 -0.0104765 -0.0185 0.000977516 0.000977516 -0.999999 
0.0460313 -0.0316481 -0.0185 0.000977516 0.000977516 -0.999999 
0.0285004 -0.03187 -0.0185 0.000977516 0.000977516 -0.999999 
0.0371354 -0.0157002 -0.0185 0.000977516 0.000977516 -0.999999 
0.0566722 -0.0249678 -0.0185 0.000977516 0.000977516 -0.999999 
0.00361969 -0.0226528 -0.0185 0.000977516 0.000977516 -0.999999 
0.00113315 -0.0122754 -0.0185 0.000977516 0.000977516 -0.999999 
0.0292005 -0.036305 -0.0185 0.000977516 0.000977516 -0.999999 
0.0363988 -0.0417302 -0.0185 0.000977516 0.000977516 -0.999999 
0.00871067 -0.00955476 -0.0185 0.000977516 0.000977516 -0.999999 
-0.0101846 -0.00574921 -0.0185 0.000977516 0.000977516 -0.999999 
0.0164683 -0.00904107 -0.0185 0.000977516 0.000977516 -0.999999 
0.0447142 -0.0464881 -0.0185 0.000977516 0.000977516 -0.999999 
-0.044746 0.0165476 -0.0185 0.000977516 0.000977516 -0.999999 
0.0316276 -0.0473818 -0.0185 0.000977516 0.000977516 -0.999999 
-0.0134647 -0.0492869 -0.0185 0.000977516 0.000977516 -0.999999 
-0.0334609 -0.0289265 -0.0185 0.000977516 0.000977516 -0.999999 
-0.0291025 -0.0480606 -0.0185 0.000977516 0.000977516 -0.999999 
-0.00534253 -0.0275987 -0.0185 0.000977516 0.000977516 -0.999999 
-0.0063106 -0.0582729 -0.0185 0.000977516 0.000977516 -0.999999 
-0.00586922 -0.0207416 -0.0185 0.000977516 0.000977516 -0.999999 
-0.0196266 -0.0299917 -0.0185 0.000977516 0.000977516 -0.999999 
0.0258287 -0.0553478 -0.0185 0.000977516 0.000977516 -0.999999 
-0.0359741 -0.0159304 -0.0185 0.000977516 0.000977516 -0.999999 
0.0122353 -0.053216 -0.0185 0.000977516 0.000977516 -0.999999 
-0.0334378 -0.0249373 -0.0185 0.000977516 0.000977516 -0.999999 
-0.0267659 -0.0334588 -0.0185 0.000977516 0.000977516 -0.999999 
-0.0204952 -0.0390343 -0.0185 0.000977516 0.000977516 -0.999999 
-0.0254247 -0.0175097 -0.0185 0.000977516 0.000977516 -0.999999 
0.00429708 -0.0586231 -0.0185 0.000977516 0.000977516 -0.999999 
-0.0006851 -0.0400931 -0.0185 0.000977516 0.000977516 -0.999999 
-0.000622596 -0.0273969 -0.0185 0.000977516 0.000977516 -0.999999 
-0.0109028 -0.0302221 -0.0185 0.000977516 0.000977516 -0.999999 
-0.0429623 0.00386674 -0.0185 0.000977516 0.000977516 -0.999999 
-0.0449453 -0.0416166 -0.0185 0.000977516 0.000977516 -0.999999 
-0.0358776 -0.0408716 -0.0185 0.000977516 0.000977516 -0.999999 
-0.0585949 -0.0237584 -0.0185 0.000977516 0.000977516 -0.999999 
-0.0551201 -0.003786 -0.0185 0.000977516 0.000977516 -0.999999 
-0.0523844 -0.0153769 -0.0185 0.000977516 0.000977516 -0.999999 
-0.0589975 -0.0311444 -0.0185 0.000977516 0.000977516 -0.999999 
-0.0662386 0.00948176 -0.0185 0.000977516 0.000977516 -0.999999 
0.0339563 0.0228192 0.102689 0.47541 0.705609 0.525453 
0.0413459 0.0105338 0.112537 0.47541 0.705609 0.525453 
0.0355199 0.0165329 0.109732 0.47541 0.705609 0.525453 
0.0447396 0.00183288 0.121174 0.47541 0.705609 0.525453 
0.0258561 0.0386121 0.0887649 0.47541 0.705609 0.525453 
0.0436214 0.00638034 0.116067 0.47541 0.705609 0.525453 
0.032749 0.043422 0.0760662 0.47541 0.705609 0.525453 
0.030347 0.0345495 0.0901714 0.47541 0.705609 0.525453 
0.0347036 0.04269 0.0752846 0.47541 0.705609 0.525453 
0.0225837 0.0515306 0.0743448 0.47541 0.705609 0.525453 
-0.0417118 -0.0547963 0.00200918 -0.613976 -0.773881 -0.15538 
-0.0369911 -0.0683169 0.0510943 -0.613976 -0.773881 -0.15538 
-0.0309468 -0.076853 0.0698723 -0.613976 -0.773881 -0.15538 
-0.04634 -0.0492054 -0.00762217 -0.613976 -0.773881 -0.15538 
-0.0311897 -0.0658724 0.015697 -0.613976 -0.773881 -0.15538 
-0.0454452 -0.0578746 0.0323481 -0.613976 -0.773881 -0.15538 
-0.0345181 -0.0768039 0.0838588 -0.613976 -0.773881 -0.15538 
-0.0359992 -0.0594688 0.00270648 -0.613976 -0.773881 -0.15538 
-0.0321194 -0.0654233 0.017147 -0.613976 -0.773881 -0.15538 
-0.0417074 -0.0521538 -0.0112784 -0.613976 -0.773881 -0.15538 
-0.0401063 -0.05822 0.012804 -0.613976 -0.773881 -0.15538 
-0.0392674 -0.0643518 0.0402539 -0.613976 -0.773881 -0.15538 
-0.0314418 -0.0658192 0.0164343 -0.613976 -0.773881 -0.15538 
-0.0413586 -0.0533289 -0.00676745 -0.613976 -0.773881 -0.15538 
-0.0488463 -0.0458956 -0.0142545 -0.613976 -0.773881 -0.15538 
-0.0345308 -0.0791102 0.0954917 -0.613976 -0.773881 -0.15538 
-0.0290318 -0.0726055 0.0409091 -0.613976 -0.773881 -0.15538 
-0.0437487 0.0356104 0.0718655 -0.684252 0.60804 0.402599 
-0.0438703 0.00420254 0.119109 -0.684252 0.60804 0.402599 
-0.0473499 0.0119374 0.101508 -0.684252 0.60804 0.402599 
-0.0528594 0.0281094 0.06771 -0.684252 0.60804 0.402599 
-0.0498801 0.0250165 0.0774472 -0.684252 0.60804 0.402599 
-0.0460579 0.0264849 0.0817265 -0.684252 0.60804 0.402599 
-0.0387874 0.0264668 0.0941135 -0.684252 0.60804 0.402599 
-0.0478257 0.0204239 0.0878782 -0.684252 0.60804 0.402599 
-0.0479293 0.0319412 0.0703019 -0.684252 0.60804 0.402599 
-0.0373934 0.0473822 0.0648849 -0.684252 0.60804 0.402599 
-0.0396521 0.0215611 0.100055 -0.684252 0.60804 0.402599 
-0.0299544 0.0436969 0.0830987 -0.684252 0.60804 0.402599 
-0.0395005 0.0364234 0.0778591 -0.684252 0.60804 0.402599 
-0.0625518 0.0256829 0.0548989 -0.684252 0.60804 0.402599 
0.0399998 -0.0618314 0.0197843 0.769164 -0.63197 -0.0948685 
0.0578925 -0.037028 -0.000281051 0.769164 -0.63197 -0.0948685 
0.0617851 -0.0303934 -0.012923 0.769164 -0.63197 -0.0948685 
0.0420027 -0.0626272 0.0414121 0.769164 -0.63197 -0.0948685 
0.0405263 -0.063623 0.0360448 0.769164 -0.63197 -0.0948685 
0.0419795 -0.0679381 0.0767156 0.769164 -0.63197 -0.0948685 
0.0555905 -0.0410233 0.00767528 0.769164 -0.63197 -0.0948685 
0.0432082 -0.052528 -0.0162654 0.769164 -0.63197 -0.0948685 
0.050656 -0.0431225 -0.0184767 0.769164 -0.63197 -0.0948685 
0.0617982 -0.0303083 -0.0133849 0.769164 -0.63197 -0.0948685 
0.0580608 -0.034957 -0.0127507 0.769164 -0.63197 -0.0948685 
0.0463176 -0.0558767 0.0314337 0.769164 -0.63197 -0.0948685 
0.0455769 -0.0601668 0.0540727 0.769164 -0.63197 -0.0948685 
0.0370383 -0.0685442 0.0405306 0.769164 -0.63197 -0.0948685 
0.0546048 -0.0445489 0.0232102 0.769164 -0.63197 -0.0948685 
0.0447013 -0.0529651 -0.00118601 0.769164 -0.63197 -0.0948685 
0.0558463 -0.0377089 -0.0123921 0.769164 -0.63197 -0.0948685 
0.0520566 0.0445492 -0.00104085 0.633223 0.773939 -0.00689785 
0.0334446 0.0597593 -0.00941043 0.633223 0.773939 -0.00689785 
0.0379479 0.0562894 0.0197871 0.633223 0.773939 -0.00689785 
0.0367059 0.0573937 0.0307647 0.633223 0.773939 -0.00689785 
0.0408909 0.0538491 0.0165566 0.633223 0.773939 -0.00689785 
0.0479482 0.0480319 0.013288 0.633223 0.773939 -0.00689785 
0.042568 0.0524437 0.0128134 0.633223 0.773939 -0.00689785 
0.0373704 0.0569436 0.0430724 0.633223 0.773939 -0.00689785 
0.0371377 0.0567896 -0.0014922 0.633223 0.773939 -0.00689785 
0.0447806 -0.0504572 0.123158 0.00120871 -0.276796 0.960928 
0.0427759 -0.0592551 0.120623 0.00120871 -0.276796 0.960928 
0.0449472 -0.0466244 0.124262 0.00120871 -0.276796 0.960928 
0.0319794 -0.0186298 0.132327 -0.00120871 -0.276796 0.960928 
0.03913 -0.0151643 0.133326 -0.00120871 -0.276796 0.960928 
0.0436417 -0.0279128 0.129653 -0.00120871 -0.276796 0.960928 
0.030514 -0.00607159 0.135945 -0.00120871 -0.276796 0.960928 
0.031771 -0.0243801 0.130671 -0.00120871 -0.276796 0.960928 
-0.000840381 -0.0444402 0.124891 -0.00120871 -0.276796 0.960928 
0.00357557 -0.00769394 0.135478 -0.00120871 -0.276796 0.960928 
-0.00416109 -0.0420043 0.125593 -0.00120871 -0.276796 0.960928 
0.0027517 -0.00473221 0.136331 -0.00120871 -0.276796 0.960928 
-0.0276948 -0.018423 0.132387 -0.00120871 -0.276796 0.960928 
0.0254816 -0.0221358 0.131317 -0.00120871 -0.276796 0.960928 
-0.00671868 -0.0245814 0.130612 -0.00120871 -0.276796 0.960928 
0.00314729 -0.0270371 0.129905 -0.00120871 -0.276796 0.960928 
-0.0177714 -0.00588166 0.136 -0.00120871 -0.276796 0.960928 
-0.0185531 -0.0210401 0.131633 -0.00120871 -0.276796 0.960928 
0.0244003 -0.0603725 0.120301 -0.00120871 -0.276796 0.960928 
-0.0199333 -0.0271575 0.12987 -0.00120871 -0.276796 0.960928 
0.00110185 -0.0268525 0.129958 -0.00120871 -0.276796 0.960928 
0.0176517 -0.00586395 0.136005 -0.00120871 -0.276796 0.960928 
-0.000521492 -0.0380723 0.126726 -0.00120871 -0.276796 0.960928 
0.0174438 -0.0404628 0.126037 -0.00120871 -0.276796 0.960928 
-0.0191623 -0.0100682 0.134794 -0.00120871 -0.276796 0.960928 
0.017883 -0.0296827 0.129143 -0.00120871 -0.276796 0.960928 
-0.0395433 -0.0351543 0.127567 0.00120871 -0.276796 0.960928 
-0.0376885 -0.029279 0.129259 0.00120871 -0.276796 0.960928 
-0.023777 -0.0407579 0.125952 0.00120871 -0.276796 0.960928 
-0.0462003 -0.0328044 0.128244 0.00120871 -0.276796 0.960928 
-0.0118679 -0.0430332 0.125297 0.00120871 -0.276796 0.960928 
-0.0120674 -0.0474439 0.124026 0.00120871 -0.276796 0.960928 
-0.0535704 -0.0319388 0.128493 0.00120871 -0.276796 0.960928 
-0.0197582 -0.0425369 0.12544 0.00120871 -0.276796 0.960928 
0.0182637 -0.0682447 0.118033 0.00120871 -0.276796 0.960928 
0.00164371 -0.0613498 0.12002 0.00120871 -0.276796 0.960928 
0.0180081 -0.0719202 0.116974 0.00120871 -0.276796 0.960928 
0.0159716 -0.0688115 0.11787 0.00120871 -0.276796 0.960928 
0.00248066 -0.0807596 0.114428 0.00120871 -0.276796 0.960928 
-0.0530211 -0.0402961 0.126086 0.00120871 -0.276796 0.960928 
-0.0402213 -0.0484333 0.123741 0.00120871 -0.276796 0.960928 
0.00107038 -0.0692056 0.117757 0.00120871 -0.276796 0.960928 
-0.0310362 -0.0774744 0.115375 0.00120871 -0.276796 0.960928 
0.007235 -0.0778752 0.115259 0.00120871 -0.276796 0.960928 
0.0146623 -0.0806478 0.11446 0.00120871 -0.276796 0.960928 
-0.0547738 -0.0396721 0.126266 0.00120871 -0.276796 0.960928 
-0.030096 -0.0643044 0.119169 0.00120871 -0.276796 0.960928 
-0.000160787 -0.0789045 0.114962 0.00120871 -0.276796 0.960928 
-0.0150028 -0.0885807 0.112175 0.00120871 -0.276796 0.960928 
-0.00876217 -0.086679 0.112723 0.00120871 -0.276796 0.960928 
-0.0615453 0.0310326 -0.0025624 -0.77331 0.633471 0.0265694 
-0.0604045 0.0309643 0.0322724 -0.77331 0.633471 0.0265694 
-0.0628599 0.0280763 0.0297894 -0.77331 0.633471 0.0265694 
-0.0471248 0.0488294 -0.00794547 -0.77331 0.633471 0.0265694 
-0.0619206 0.0296247 0.0201425 -0.77331 0.633471 0.0265694 
-0.0609104 0.03234 -0.0153117 -0.77331 0.633471 0.0265694 
-0.0640813 0.0259001 0.0462222 -0.77331 0.633471 0.0265694 
-0.0631642 0.0288531 0.00237879 -0.77331 0.633471 0.0265694 
0.00685674 -0.0652875 0.0011053 0.0956245 -0.96517 -0.243524 
0.0157946 -0.068823 0.0185617 0.0956245 -0.96517 -0.243524 
-0.0131118 -0.0649379 -0.00805164 0.0956245 -0.96517 -0.243524 
-0.0142849 -0.0732908 0.0245117 0.0956245 -0.96517 -0.243524 
0.0195826 -0.0679297 0.0165055 0.0956245 -0.96517 -0.243524 
-0.0212841 -0.0679406 0.000636397 0.0956245 -0.96517 -0.243524 
0.0342795 -0.0610742 -0.00487256 0.0956245 -0.96517 -0.243524 
0.00765111 -0.065187 0.00101762 0.0956245 -0.96517 -0.243524 
-0.00804269 -0.0700133 0.0139858 0.0956245 -0.96517 -0.243524 
0.0181765 -0.0751497 0.0444993 0.0956245 -0.96517 -0.243524 
0.0204035 -0.0660236 0.00929012 0.0956245 -0.96517 -0.243524 
0.0161941 -0.0599392 -0.0164012 0.0956245 -0.96517 -0.243524 
0.000478557 -0.0722926 0.0263139 0.0956245 -0.96517 -0.243524 
0.0282711 -0.0621617 -0.00291324 0.0956245 -0.96517 -0.243524 
0.00953845 -0.0768146 0.0477175 0.0956245 -0.96517 -0.243524 
0.00446083 -0.0737715 0.0337105 0.0956245 -0.96517 -0.243524 
0.0122396 -0.0794226 0.0590788 0.0956245 -0.96517 -0.243524 
-0.00468492 -0.0696274 0.0137676 0.0956245 -0.96517 -0.243524 
-0.0106413 -0.0623059 -0.0174943 0.0956245 -0.96517 -0.243524 
-0.00861483 -0.0736515 0.028145 0.0956245 -0.96517 -0.243524 
-0.00139106 -0.0785347 0.0502617 0.0956245 -0.96517 -0.243524 
0.00940378 -0.0632491 -0.00596069 0.0956245 -0.96517 -0.243524 
-0.007154 -0.0652912 -0.00433516 0.0956245 -0.96517 -0.243524 
-0.00845592 -0.0829257 0.064869 0.0956245 -0.96517 -0.243524 
-0.00852686 -0.0793341 0.0506434 0.0956245 -0.96517 -0.243524 
-0.00207642 -0.0842048 0.0724094 0.0956245 -0.96517 -0.243524 
-0.0649536 -0.0186134 0.0315964 -0.95711 -0.2897 -0.00366709 
-0.0610817 -0.0319851 0.0810105 -0.95711 -0.2897 -0.00366709 
-0.0667994 -0.0121118 -0.00229812 -0.95711 -0.2897 -0.00366709 
-0.0660191 -0.014966 0.0206228 -0.95711 -0.2897 -0.00366709 
-0.0616699 -0.0294002 0.0285157 -0.95711 -0.2897 -0.00366709 
-0.0621511 -0.0284682 0.0816902 -0.95711 -0.2897 -0.00366709 
-0.0601339 -0.0349774 0.0702744 -0.95711 -0.2897 -0.00366709 
-0.0648265 -0.0187936 0.0121866 -0.95711 -0.2897 -0.00366709 
-0.0617433 -0.0292346 0.0347218 -0.95711 -0.2897 -0.00366709 
-0.0642275 -0.0206246 0.000534555 -0.95711 -0.2897 -0.00366709 
-0.0602589 -0.0341324 0.0351016 -0.95711 -0.2897 -0.00366709 
-0.0597618 -0.0352333 -0.00861193 -0.95711 -0.2897 -0.00366709 
-0.0596126 -0.0362127 0.0310243 -0.95711 -0.2897 -0.00366709 
-0.0659251 -0.0149137 -0.00880469 -0.95711 -0.2897 -0.00366709 
-0.0667262 -0.0122005 -0.0146966 -0.95711 -0.2897 -0.00366709 
-0.0608103 -0.0327911 0.0737953 -0.95711 -0.2897 -0.00366709 
-0.0692092 -0.00404493 -0.0122926 -0.95711 -0.2897 -0.00366709 
0.0674135 0.0014437 0.0195415 0.997071 0.0137746 0.0752307 
0.0667001 -0.0112354 0.0310948 0.997071 0.0137746 0.0752307 
0.0664424 0.0132178 0.0302887 0.997071 0.0137746 0.0752307 
0.0641279 0.0102707 0.0612196 0.997071 0.0137746 0.0752307 
0.0644484 -0.00884472 0.0602839 0.997071 0.0137746 0.0752307 
0.0636565 -0.0214198 0.0728505 0.997071 0.0137746 0.0752307 
0.0641805 0.0166756 0.05943 0.997071 0.0137746 0.0752307 
0.0652778 0.0132743 0.0455885 0.997071 0.0137746 0.0752307 
0.0677088 0.0106237 0.0140858 0.997071 0.0137746 0.0752307 
0.0643607 -0.00723832 0.0611615 0.997071 0.0137746 0.0752307 
0.0653375 0.00936012 0.0454741 0.997071 0.0137746 0.0752307 
0.0631505 -0.00399728 0.076514 0.997071 0.0137746 0.0752307 
0.0646977 0.00468091 0.0546874 0.997071 0.0137746 0.0752307 
0.0647484 0.00212368 0.0544591 0.997071 0.0137746 0.0752307 
0.0609481 -0.027846 0.109555 0.997071 0.0137746 0.0752307 
0.0648591 0.00236529 0.0529625 0.997071 0.0137746 0.0752307 
0.0643512 0.0154411 0.0573975 0.997071 0.0137746 0.0752307 
0.0623002 -0.0112205 0.0889307 0.997071 0.0137746 0.0752307 
0.0676596 -0.00349347 0.0171535 0.997071 0.0137746 0.0752307 
0.0105589 -1.12844e-05 0.132914 -0.0295658 0.699723 0.713802 
-0.0105737 0.0128381 0.119444 -0.0295658 0.699723 0.713802 
0.0183086 0.0313737 0.102474 -0.0295658 0.699723 0.713802 
-0.016625 -0.00303003 0.134746 -0.0295658 0.699723 0.713802 
-0.026099 0.00541006 0.12608 -0.0295658 0.699723 0.713802 
0.00430094 0.00976615 0.123071 -0.0295658 0.699723 0.713802 
-0.0342842 -0.00342988 0.134405 -0.0295658 0.699723 0.713802 
0.0108209 0.0330078 0.100562 -0.0295658 0.699723 0.713802 
-0.0294455 0.00282735 0.128473 -0.0295658 0.699723 0.713802 
0.0041363 0.0387737 0.094633 -0.0295658 0.699723 0.713802 
0.00259459 0.0360969 0.0971927 -0.0295658 0.699723 0.713802 
-0.0233437 0.0112525 0.120468 -0.0295658 0.699723 0.713802 
0.0115767 0.048397 0.0855094 -0.0295658 0.699723 0.713802 
-0.0208155 0.000844865 0.130774 -0.0295658 0.699723 0.713802 
0.0170663 0.0112796 0.122117 -0.0295658 0.699723 0.713802 
-0.0088882 0.00677349 0.125458 -0.0295658 0.699723 0.713802 
0.0218489 2.11548e-05 0.133351 -0.0295658 0.699723 0.713802 
-0.00076171 0.0693805 0.0337407 -0.0969486 0.985045 -0.142431 
0.0237791 0.0644569 -0.0168331 -0.0969486 0.985045 -0.142431 
0.00171041 0.0693113 0.0315864 -0.0969486 0.985045 -0.142431 
-0.0109709 0.0626445 -0.00573812 -0.0969486 0.985045 -0.142431 
0.00468411 0.0685151 0.0240831 -0.0969486 0.985045 -0.142431 
-0.00999179 0.0655484 0.0136035 -0.0969486 0.985045 -0.142431 
-0.0179514 0.0626274 -0.0011188 -0.0969486 0.985045 -0.142431 
-0.0308024 0.0601179 -0.00968737 -0.0969486 0.985045 -0.142431 
0.0123338 0.0638892 -0.0129776 -0.0969486 0.985045 -0.142431 
-0.00991528 0.0655131 0.0133084 -0.0969486 0.985045 -0.142431 
-0.000669528 0.069001 0.0310637 -0.0969486 0.985045 -0.142431 
-0.0176164 0.0606247 -0.0151439 -0.0969486 0.985045 -0.142431 
-0.00348144 0.0623155 0.0574663 -0.0193896 0.924236 0.381328 
-0.000286886 0.0622663 0.0577436 -0.0193896 0.924236 0.381328 
-0.00895826 0.0647112 0.0513911 -0.0193896 0.924236 0.381328 
-0.0014006 0.0655694 0.0496858 -0.0193896 0.924236 0.381328 
0.0004317 0.063439 0.054938 -0.0193896 0.924236 0.381328 
-0.0635647 0.00773843 0.0707552 -0.997145 0.00949661 0.0749177 
-0.06656 0.00235457 0.031454 -0.997145 0.00949661 0.0749177 
-0.0682731 0.00655442 0.00812006 -0.997145 0.00949661 0.0749177 
-0.0635738 -0.0198129 0.0738787 -0.997145 0.00949661 0.0749177 
-0.0628325 -0.0152425 0.0832231 -0.997145 0.00949661 0.0749177 
-0.0678292 -0.00165317 0.0150045 -0.997145 0.00949661 0.0749177 
-0.0680851 -0.0074061 0.0122705 -0.997145 0.00949661 0.0749177 
-0.067551 -0.00966047 0.0196561 -0.997145 0.00949661 0.0749177 
-0.0672022 -0.00372103 0.0236081 -0.997145 0.00949661 0.0749177 
-0.0691825 0.0046633 -0.00378283 -0.997145 0.00949661 0.0749177 
-0.0640047 -0.00820279 0.0667654 -0.997145 0.00949661 0.0749177 
-0.0653973 -0.0167792 0.0492097 -0.997145 0.00949661 0.0749177 
-0.0639147 0.00811184 0.0660451 -0.997145 0.00949661 0.0749177 
-0.0691138 0.00436071 -0.00283033 -0.997145 0.00949661 0.0749177 
-0.0669879 -0.0112382 0.0273499 -0.997145 0.00949661 0.0749177 
-0.0616 -0.0213462 0.100374 -0.997145 0.00949661 0.0749177 
-0.0625128 -0.010927 0.0869772 -0.997145 0.00949661 0.0749177 
-0.0669885 -0.00415881 0.0265087 -0.997145 0.00949661 0.0749177 
-0.0642155 -0.0102973 0.0642025 -0.997145 0.00949661 0.0749177 
0.064627 0.0221613 0.023816 0.956708 0.289874 -0.026126 
0.0623316 0.0273659 -0.002031 0.956708 0.289874 -0.026126 
0.0655919 0.0174901 0.00750798 0.956708 0.289874 -0.026126 
0.0596322 0.0351285 -0.0144642 0.956708 0.289874 -0.026126 
0.0662222 0.0153727 0.00707653 0.956708 0.289874 -0.026126 
0.0617911 0.0296959 0.00396655 0.956708 0.289874 -0.026126 
0.0611805 0.0321993 0.0093315 0.956708 0.289874 -0.026126 
0.0634529 0.0251445 0.0141081 0.956708 0.289874 -0.026126 
0.0658103 0.0159948 -0.000976702 0.956708 0.289874 -0.026126 
-0.0255023 0.0621652 0.00711389 -0.387807 0.919196 0.0684365 
-0.0234232 0.0611521 0.0328571 -0.387807 0.919196 0.0684365 
-0.0323294 0.0588769 0.012743 -0.387807 0.919196 0.0684365 
-0.0167968 0.0629565 0.0463019 -0.387807 0.919196 0.0684365 
-0.0134627 0.0653365 0.0330017 -0.387807 0.919196 0.0684365 
-0.0242581 0.0622706 0.0128206 -0.387807 0.919196 0.0684365 
-0.0264545 0.0586299 0.049835 -0.387807 0.919196 0.0684365 
-0.0297098 0.0593026 0.0219786 -0.387807 0.919196 0.0684365 
0.0640678 -0.0278414 0.00415995 0.875267 -0.483595 -0.00666109 
0.0542679 -0.0464773 0.0857237 0.875267 -0.483595 -0.00666109 
0.0567091 -0.0414405 0.0297789 0.875267 -0.483595 -0.00666109 
0.0580242 -0.0399083 0.106296 0.875267 -0.483595 -0.00666109 
0.0477227 -0.0585094 0.102754 0.875267 -0.483595 -0.00666109 
0.0460459 -0.0616395 0.11143 0.875267 -0.483595 -0.00666109 
0.0348326 -0.0819577 0.113941 0.875267 -0.483595 -0.00666109 
0.0415564 -0.069765 0.111587 0.875267 -0.483595 -0.00666109 
0.0549737 -0.0445438 0.0264545 0.875267 -0.483595 -0.00666109 
0.0581865 -0.0388752 0.039538 0.875267 -0.483595 -0.00666109 
0.0551462 -0.0452648 0.119729 0.875267 -0.483595 -0.00666109 
0.0545955 -0.0462144 0.115506 0.875267 -0.483595 -0.00666109 
0.0465066 -0.0608255 0.113188 0.875267 -0.483595 -0.00666109 
0.0580771 -0.0399383 0.11765 0.875267 -0.483595 -0.00666109 
0.0567737 -0.0416073 0.0553905 0.875267 -0.483595 -0.00666109 
0.0410027 -0.0705892 0.0955434 0.875267 -0.483595 -0.00666109 
0.0626534 -0.030459 0.00942188 0.875267 -0.483595 -0.00666109 
0.0481544 -0.0577262 0.102575 0.875267 -0.483595 -0.00666109 
0.0619567 -0.031706 0.00818682 0.875267 -0.483595 -0.00666109 
0.0444339 -0.0642577 0.0844449 0.875267 -0.483595 -0.00666109 
0.0514205 -0.0511829 0.0453814 0.875267 -0.483595 -0.00666109 
0.0513591 -0.0517566 0.087153 0.875267 -0.483595 -0.00666109 
0.0518567 -0.0509481 0.0954452 0.875267 -0.483595 -0.00666109 
-0.0482255 -0.0566929 0.0388723 -0.870606 -0.491965 -0.00399972 
-0.0573545 -0.0405544 0.0382708 -0.870606 -0.491965 -0.00399972 
-0.0535526 -0.0472749 0.0384505 -0.870606 -0.491965 -0.00399972 
-0.0528634 -0.048797 0.0806728 -0.870606 -0.491965 -0.00399972 
-0.0491843 -0.0551208 0.0558696 -0.870606 -0.491965 -0.00399972 
-0.0538987 -0.0470182 0.0877552 -0.870606 -0.491965 -0.00399972 
-0.0438584 -0.0646413 0.0708353 -0.870606 -0.491965 -0.00399972 
-0.0487527 -0.055773 0.0405289 -0.870606 -0.491965 -0.00399972 
-0.0389266 -0.0734994 0.0905532 -0.870606 -0.491965 -0.00399972 
-0.0413443 -0.069275 0.0972961 -0.870606 -0.491965 -0.00399972 
-0.0520623 -0.0502396 0.0843973 -0.870606 -0.491965 -0.00399972 
-0.0587407 -0.0378042 -0.00342364 -0.870606 -0.491965 -0.00399972 
-0.0520527 -0.0502271 0.0802995 -0.870606 -0.491965 -0.00399972 
-0.048347 -0.0567542 0.07721 -0.870606 -0.491965 -0.00399972 
-0.0575678 -0.0403277 0.0591502 -0.870606 -0.491965 -0.00399972 
-0.0544633 -0.0455 0.0154687 -0.870606 -0.491965 -0.00399972 
-0.0453241 -0.0620246 0.0671989 -0.870606 -0.491965 -0.00399972 
-0.0408715 -0.0701576 0.103809 -0.870606 -0.491965 -0.00399972 
-0.0522516 -0.0501648 0.120474 -0.870606 -0.491965 -0.00399972 
-0.0568729 -0.0417619 0.0877748 -0.870606 -0.491965 -0.00399972 
-0.0452355 -0.0621927 0.0687847 -0.870606 -0.491965 -0.00399972 
-0.0545915 -0.045484 0.0447364 -0.870606 -0.491965 -0.00399972 
-0.053784 -0.0473756 0.109217 -0.870606 -0.491965 -0.00399972 
-0.0236054 -0.0800087 0.0745632 -0.286682 -0.944284 -0.161683 
-0.0296743 -0.0822908 0.0987202 -0.286682 -0.944284 -0.161683 
-0.0325692 -0.0821012 0.102758 -0.286682 -0.944284 -0.161683 
-0.00861031 -0.0856333 0.0808426 -0.286682 -0.944284 -0.161683 
-0.0260776 -0.075924 0.0550365 -0.286682 -0.944284 -0.161683 
-0.0312554 -0.078729 0.080671 -0.286682 -0.944284 -0.161683 
-0.0226551 -0.0773722 0.0574322 -0.286682 -0.944284 -0.161683 
-0.0250082 -0.0781261 0.0660317 -0.286682 -0.944284 -0.161683 
-0.0109401 -0.0860341 0.0873328 -0.286682 -0.944284 -0.161683 
-0.0156071 -0.0788972 0.0538321 -0.286682 -0.944284 -0.161683 
-0.0310301 -0.0822014 0.100608 -0.286682 -0.944284 -0.161683 
-0.0209974 -0.0693445 0.00746837 -0.286682 -0.944284 -0.161683 
-0.006335 -0.0859581 0.0786996 -0.286682 -0.944284 -0.161683 
-0.0187014 -0.0836232 0.0870128 -0.286682 -0.944284 -0.161683 
-0.0188284 -0.0754278 0.0392402 -0.286682 -0.944284 -0.161683 
0.0168415 0.0642182 0.0375484 0.311657 0.947903 0.0659523 
0.00383108 0.0684797 0.0377744 0.311657 0.947903 0.0659523 
0.028437 0.0631725 -0.00260981 0.311657 0.947903 0.0659523 
0.0253325 0.0634281 0.00849512 0.311657 0.947903 0.0659523 
0.0297975 0.060942 0.0232782 0.311657 0.947903 0.0659523 
0.0225026 0.0620083 0.0426129 0.311657 0.947903 0.0659523 
0.0167781 0.0654328 0.0202176 0.311657 0.947903 0.0659523 
0.00521328 0.0678648 0.0401049 0.311657 0.947903 0.0659523 
0.0499179 0.0371808 0.0613819 0.713521 0.581692 0.390541 
0.0528302 0.0208073 0.0805454 0.713521 0.581692 0.390541 
0.0498095 0.0171709 0.0915344 0.713521 0.581692 0.390541 
0.0530869 0.0346269 0.0593873 0.713521 0.581692 0.390541 
0.0622424 0.02089 0.0631424 0.713521 0.581692 0.390541 
0.0609589 0.0216593 0.0643472 0.713521 0.581692 0.390541 
0.0493818 0.0228916 0.083756 0.713521 0.581692 0.390541 
0.0479723 0.0349813 0.0682462 0.713521 0.581692 0.390541 
0.0606861 0.028368 0.0548054 0.713521 0.581692 0.390541 
0.0440009 0.0422833 0.0646065 0.713521 0.581692 0.390541 
-0.0612797 0.0169321 0.0687493 -0.857934 0.366361 0.360178 
-0.0574621 0.0144326 0.0803541 -0.857934 0.366361 0.360178 
-0.0597043 -9.23434e-05 0.0897434 -0.857934 0.366361 0.360178 
-0.049513 -0.0177723 0.131876 -0.857934 0.366361 0.360178 
-0.0527143 -0.0124822 0.118909 -0.857934 0.366361 0.360178 
-0.0494211 -0.000311517 0.114403 -0.857934 0.366361 0.360178 
-0.0571988 -0.0116044 0.107362 -0.857934 0.366361 0.360178 
-0.0498991 -0.0183028 0.131496 -0.857934 0.366361 0.360178 
-0.0477068 -0.0103562 0.128654 -0.857934 0.366361 0.360178 
-0.0567127 0.00857029 0.0880751 -0.857934 0.366361 0.360178 
0.0356584 -0.0706077 0.0493039 0.317563 -0.933273 -0.167795 
0.0245003 -0.0839607 0.102035 0.317563 -0.933273 -0.167795 
0.0240229 -0.0802286 0.0805106 0.317563 -0.933273 -0.167795 
0.0298165 -0.069288 0.0309865 0.317563 -0.933273 -0.167795 
0.0234755 -0.0802768 0.0797437 0.317563 -0.933273 -0.167795 
0.0237751 -0.0724411 0.0370091 0.317563 -0.933273 -0.167795 
0.00692096 -0.0896791 0.100459 0.317563 -0.933273 -0.167795 
0.0266681 -0.0809898 0.0897086 0.317563 -0.933273 -0.167795 
0.0330374 -0.0642992 0.00949675 0.317563 -0.933273 -0.167795 
0.0371638 -0.0677213 0.0361947 0.317563 -0.933273 -0.167795 
0.0355046 -0.0694051 0.0423679 0.317563 -0.933273 -0.167795 
0.0138357 -0.0839813 0.0820226 0.317563 -0.933273 -0.167795 
0.0184222 -0.0854992 0.0990661 0.317563 -0.933273 -0.167795 
0.0154039 -0.0879908 0.107138 0.317563 -0.933273 -0.167795 
0.0585172 -0.014364 0.109352 0.916745 0.276617 0.288203 
0.0529361 -0.00560904 0.118724 0.916745 0.276617 0.288203 
0.0595752 -0.00193701 0.0941871 0.916745 0.276617 0.288203 
0.0579558 -0.0225899 0.118949 0.916745 0.276617 0.288203 
0.0577032 -0.000986534 0.0992182 0.916745 0.276617 0.288203 
0.0623488 -0.00149621 0.0849752 0.916745 0.276617 0.288203 
0.0575755 -0.0174308 0.115252 0.916745 0.276617 0.288203 
0.059653 0.00711495 0.0853373 0.916745 0.276617 0.288203 
-0.0284053 0.0571241 0.0575436 -0.669484 0.734511 0.110842 
-0.0516041 0.0367763 0.0524532 -0.669484 0.734511 0.110842 
-0.0415976 0.0463312 0.049446 -0.669484 0.734511 0.110842 
-0.0519927 0.0356364 0.0577107 -0.669484 0.734511 0.110842 
-0.0468363 0.0469303 0.0135694 -0.669484 0.734511 0.110842 
-0.0352137 0.0541057 0.0363042 -0.669484 0.734511 0.110842 
-0.041604 0.0551012 -0.00922865 -0.669484 0.734511 0.110842 
-0.0415986 0.0465776 0.0477928 -0.669484 0.734511 0.110842 
-0.0448332 0.0505347 0.00165702 -0.669484 0.734511 0.110842 
-0.0353657 0.052563 0.0456937 -0.669484 0.734511 0.110842 
-0.0508951 0.0423537 0.019476 -0.669484 0.734511 0.110842 
-0.032889 0.0528421 0.0588947 -0.669484 0.734511 0.110842 
-0.0413827 0.0517139 0.0147654 -0.669484 0.734511 0.110842 
-0.0648951 0.0245833 0.0435939 -0.980726 0.195221 0.00808608 
-0.0653734 0.0222701 0.0412951 -0.980726 0.195221 0.00808608 
-0.0658963 0.0219266 -0.0163069 -0.980726 0.195221 0.00808608 
-0.0666343 0.0166296 0.0237062 -0.980726 0.195221 0.00808608 
-0.0653351 0.0224961 0.0404566 -0.980726 0.195221 0.00808608 
-0.0675077 0.0130026 0.00446072 -0.980726 0.195221 0.00808608 
0.0477393 0.0468834 0.0350094 0.767346 0.63826 0.0616746 
0.0518522 0.0427976 0.0259771 0.767346 0.63826 0.0616746 
0.0585164 0.034299 0.03114 0.767346 0.63826 0.0616746 
0.0454813 0.0498505 0.0323378 0.767346 0.63826 0.0616746 
0.0527537 0.0416807 0.0263301 0.767346 0.63826 0.0616746 
0.0455378 0.0486714 0.0440495 0.767346 0.63826 0.0616746 
0.0461438 0.0487498 0.0355458 0.767346 0.63826 0.0616746 
0.0560827 0.0384147 0.0185872 0.767346 0.63826 0.0616746 
0.0526415 0.0440604 0.00266908 0.767346 0.63826 0.0616746 
-0.0336547 0.0265163 0.101778 -0.126892 0.741944 0.658345 
-0.0302186 0.00947747 0.121621 -0.126892 0.741944 0.658345 
-0.0241961 0.024898 0.105436 -0.126892 0.741944 0.658345 
-0.0175789 0.0503532 0.0780732 -0.126892 0.741944 0.658345 
0.000294944 0.0504224 0.0814661 -0.126892 0.741944 0.658345 
-0.0369546 0.0101377 0.11957 -0.126892 0.741944 0.658345 
-0.0100997 0.0301373 0.102277 -0.126892 0.741944 0.658345 
-0.0099299 0.0399957 0.0912151 -0.126892 0.741944 0.658345 
-0.0266016 0.0298403 0.0994068 -0.126892 0.741944 0.658345 
-0.013011 0.0544724 0.0743243 -0.126892 0.741944 0.658345 
-0.0338318 0.0220062 0.10682 -0.126892 0.741944 0.658345 
0.0658737 -0.0212397 -0.00375649 0.980518 -0.195169 0.0222048 
0.0694547 -0.00358726 -0.00681655 0.980518 -0.195169 0.0222048 
0.0688138 -0.00814803 -0.0184477 0.980518 -0.195169 0.0222048 
0.0664792 -0.0171087 0.00569031 0.980518 -0.195169 0.0222048 
0.0672961 -0.013378 0.00241665 0.980518 -0.195169 0.0222048 
0.066429 -0.0163773 0.0142381 0.980518 -0.195169 0.0222048 
0.0655192 -0.0192964 0.0286242 0.980518 -0.195169 0.0222048 
0.0679734 -0.0111451 -0.00777341 0.980518 -0.195169 0.0222048 
0.0674594 -0.0142626 -0.0124053 0.980518 -0.195169 0.0222048 
0.0631407 -0.0289894 0.0483137 0.980518 -0.195169 0.0222048 
0.0648765 -0.0232462 0.0223792 0.980518 -0.195169 0.0222048 
0.00418267 0.0637399 0.0542721 0.213402 0.928512 0.303851 
0.0117879 0.0652876 0.0442099 0.213402 0.928512 0.303851 
0.0097644 0.0658464 0.043931 0.213402 0.928512 0.303851 
