ply
format ascii 1.0
comment Created by CloudCompare v2.10.3 (Zephyrus)
comment Created 28.11.21 12:41
obj_info Generated by CloudCompare!
element vertex 784
property float x
property float y
property float z
property float nx
property float ny
property float nz
end_header
0.00681598 0.018287 -0.0015 0.000977516 0.000977516 -0.999999 
0.00350447 0.00424763 -0.0015 0.000977516 0.000977516 -0.999999 
-0.051603 0.0246832 -0.0015 0.000977516 0.000977516 -0.999999 
-0.0520159 0.0276822 -0.0015 0.000977516 0.000977516 -0.999999 
-0.0627835 0.00561799 -0.0015 0.000977516 0.000977516 -0.999999 
-0.05097 0.00730409 -0.0015 0.000977516 0.000977516 -0.999999 
-0.0030755 0.0246756 -0.0015 0.000977516 0.000977516 -0.999999 
-0.038993 0.0296275 -0.0015 0.000977516 0.000977516 -0.999999 
-0.0487736 0.0106139 -0.0015 0.000977516 0.000977516 -0.999999 
-0.0539333 0.00887692 -0.0015 0.000977516 0.000977516 -0.999999 
0.0448008 0.00470006 -0.0015 0.000977516 0.000977516 -0.999999 
0.016741 0.0115318 -0.0015 0.000977516 0.000977516 -0.999999 
-0.0286773 0.0176578 -0.0015 0.000977516 0.000977516 -0.999999 
-0.0293982 0.0323975 -0.0015 0.000977516 0.000977516 -0.999999 
0.0595334 0.00370716 -0.0015 0.000977516 0.000977516 -0.999999 
-0.0233868 0.0332904 -0.0015 0.000977516 0.000977516 -0.999999 
-0.0276595 0.0421392 -0.0015 0.000977516 0.000977516 -0.999999 
-0.0454873 0.0454574 -0.0015 0.000977516 0.000977516 -0.999999 
-0.0176354 0.0376061 -0.0015 0.000977516 0.000977516 -0.999999 
-0.0359274 0.0539729 -0.0015 0.000977516 0.000977516 -0.999999 
-0.0324553 0.0472777 -0.0015 0.000977516 0.000977516 -0.999999 
-0.0294267 0.0433274 -0.0015 0.000977516 0.000977516 -0.999999 
0.0048867 0.0628373 -0.0015 0.000977516 0.000977516 -0.999999 
0.0449685 0.0189067 -0.0015 0.000977516 0.000977516 -0.999999 
0.0241392 0.0328906 -0.0015 0.000977516 0.000977516 -0.999999 
0.0460231 0.0145839 -0.0015 0.000977516 0.000977516 -0.999999 
0.0153497 0.0497296 -0.0015 0.000977516 0.000977516 -0.999999 
-0.0246213 0.0645159 -0.0015 0.000977516 0.000977516 -0.999999 
0.0082814 0.0349224 -0.0015 0.000977516 0.000977516 -0.999999 
-0.0167676 0.0594567 -0.0015 0.000977516 0.000977516 -0.999999 
-0.00839362 0.0667881 -0.0015 0.000977516 0.000977516 -0.999999 
0.0297954 0.0352992 -0.0015 0.000977516 0.000977516 -0.999999 
0.0550265 0.0196329 -0.0015 0.000977516 0.000977516 -0.999999 
0.0111874 0.0586981 -0.0015 0.000977516 0.000977516 -0.999999 
0.0170073 0.0600988 -0.0015 0.000977516 0.000977516 -0.999999 
0.0359138 0.0437902 -0.0015 0.000977516 0.000977516 -0.999999 
0.0345006 0.0516988 -0.0015 0.000977516 0.000977516 -0.999999 
0.0348587 0.0344766 -0.0015 0.000977516 0.000977516 -0.999999 
0.0397271 0.0459873 0.0676375 0.439953 0.746437 0.499273 
0.035967 0.0549324 0.0575861 0.439953 0.746437 0.499273 
0.0457507 0.0399747 0.0713036 0.439953 0.746437 0.499273 
0.0289251 0.0576457 0.0597533 0.439953 0.746437 0.499273 
0.0364207 0.00116253 0.137583 0.439953 0.746437 0.499273 
0.0334866 0.0105559 0.126131 0.439953 0.746437 0.499273 
0.0338879 0.0433229 0.0767825 0.439953 0.746437 0.499273 
0.0280756 0.0415336 0.0845953 0.439953 0.746437 0.499273 
0.0472888 0.0233224 0.0948429 0.439953 0.746437 0.499273 
0.0396266 0.021255 0.104707 0.439953 0.746437 0.499273 
0.0406572 0.0105102 0.119862 0.439953 0.746437 0.499273 
0.0477216 0.0236221 0.0940124 0.439953 0.746437 0.499273 
0.0284901 0.0365182 0.0917281 0.439953 0.746437 0.499273 
0.0463386 0.0150817 0.108005 0.439953 0.746437 0.499273 
0.0468779 0.038102 0.0731074 0.439953 0.746437 0.499273 
0.0517626 0.0244065 0.0892679 0.439953 0.746437 0.499273 
0.0434768 0.00636151 0.123573 0.439953 0.746437 0.499273 
0.048601 0.0195595 0.0993095 0.439953 0.746437 0.499273 
-0.0279733 -0.0650654 0.00857863 -0.622978 -0.760737 -0.182148 
-0.0391306 -0.0589259 0.0211264 -0.622978 -0.760737 -0.182148 
-0.0478454 -0.0537861 0.0294842 -0.622978 -0.760737 -0.182148 
-0.0315858 -0.0609814 0.00385881 -0.622978 -0.760737 -0.182148 
-0.040454 -0.0717353 0.0793354 -0.622978 -0.760737 -0.182148 
-0.0332919 -0.0718982 0.0554513 -0.622978 -0.760737 -0.182148 
-0.0479333 -0.0547362 0.0337661 -0.622978 -0.760737 -0.182148 
-0.0427113 -0.0524988 0.0064795 -0.622978 -0.760737 -0.182148 
-0.0405876 -0.0682281 0.0650989 -0.622978 -0.760737 -0.182148 
-0.0335172 -0.0665272 0.0337199 -0.622978 -0.760737 -0.182148 
-0.0414189 -0.0575167 0.0230709 -0.622978 -0.760737 -0.182148 
-0.0475992 -0.0508601 0.0163796 -0.622978 -0.760737 -0.182148 
-0.0396341 -0.0632237 0.0408606 -0.622978 -0.760737 -0.182148 
-0.045089 -0.0512732 0.00950028 -0.622978 -0.760737 -0.182148 
-0.0306743 -0.0665301 0.0239806 -0.622978 -0.760737 -0.182148 
-0.044294 -0.0494838 -0.000724089 -0.622978 -0.760737 -0.182148 
-0.0335852 0.0370016 0.0891792 -0.682415 0.626507 0.376562 
-0.0552329 0.0165311 0.0839962 -0.682415 0.626507 0.376562 
-0.0276143 0.0553764 0.0695313 -0.682415 0.626507 0.376562 
-0.0581837 0.0235039 0.0671227 -0.682415 0.626507 0.376562 
-0.0465783 0.0379925 0.064082 -0.682415 0.626507 0.376562 
-0.0387887 0.0215669 0.105344 -0.682415 0.626507 0.376562 
-0.0369759 0.0304793 0.0938582 -0.682415 0.626507 0.376562 
-0.0576187 0.0215183 0.0714308 -0.682415 0.626507 0.376562 
-0.0288728 0.0545642 0.0686043 -0.682415 0.626507 0.376562 
-0.0539175 0.0156251 0.0878711 -0.682415 0.626507 0.376562 
-0.041368 0.0316891 0.0839259 -0.682415 0.626507 0.376562 
-0.034908 0.0300543 0.0982953 -0.682415 0.626507 0.376562 
-0.0373469 0.0352611 0.0852703 -0.682415 0.626507 0.376562 
-0.0445288 0.0213143 0.0953997 -0.682415 0.626507 0.376562 
-0.0567782 0.0197199 0.075926 -0.682415 0.626507 0.376562 
0.0326059 -0.0818492 0.0897032 0.70014 -0.70014 -0.140028 
0.0317335 -0.0766247 0.0592322 0.70014 -0.70014 -0.140028 
0.0371714 -0.0636916 0.021771 0.70014 -0.70014 -0.140028 
0.0333081 -0.0771003 0.0694782 0.70014 -0.70014 -0.140028 
0.0353379 -0.0728877 0.0585681 0.70014 -0.70014 -0.140028 
0.0425546 -0.0611907 0.0361758 0.70014 -0.70014 -0.140028 
0.0525092 -0.0477276 0.018641 0.70014 -0.70014 -0.140028 
0.0469051 -0.0530416 0.0171905 0.70014 -0.70014 -0.140028 
0.0430239 -0.0567083 0.0161187 0.70014 -0.70014 -0.140028 
0.039177 -0.0606645 0.0166652 0.70014 -0.70014 -0.140028 
0.0414445 -0.0619603 0.0344745 0.70014 -0.70014 -0.140028 
0.0398759 -0.073129 0.0824551 0.70014 -0.70014 -0.140028 
0.0392544 -0.0631025 0.029237 0.70014 -0.70014 -0.140028 
0.0371187 -0.072282 0.0644415 0.70014 -0.70014 -0.140028 
0.0470671 -0.0513198 0.00939509 0.70014 -0.70014 -0.140028 
0.0495006 -0.0557685 0.0437922 0.70014 -0.70014 -0.140028 
0.042582 0.0518887 0.0322364 0.706618 0.703716 0.073999 
0.0462799 0.0477372 0.0362623 0.706618 0.703716 0.073999 
0.0371132 0.0559106 0.0461937 0.706618 0.703716 0.073999 
0.0355128 0.0572896 0.0483792 0.706618 0.703716 0.073999 
0.0425358 0.0529519 0.0226786 0.706618 0.703716 0.073999 
0.03997 0.0526621 0.0496918 0.706618 0.703716 0.073999 
0.0509949 0.0429439 0.0262688 0.767229 0.640064 0.0409754 
0.0482583 0.0458017 0.0327885 0.767229 0.640064 0.0409754 
0.0481212 0.0469127 0.0180028 0.767229 0.640064 0.0409754 
0.0549937 0.0354866 0.0679824 0.767229 0.640064 0.0409754 
0.0470698 0.0481539 0.0182704 0.767229 0.640064 0.0409754 
0.0197512 -0.0954794 0.123377 -0.00117011 -0.223492 0.974705 
0.0113999 -0.0950462 0.123476 -0.00117011 -0.223492 0.974705 
0.0436655 -0.0531506 0.133039 -0.00117011 -0.223492 0.974705 
0.0141291 -0.0685496 0.129524 -0.00117011 -0.223492 0.974705 
0.0358959 -0.0741059 0.128256 -0.00117011 -0.223492 0.974705 
0.0228149 -0.0723317 0.128661 -0.00117011 -0.223492 0.974705 
-0.0242859 -0.0865123 0.125424 -0.00117011 -0.223492 0.974705 
0.0322351 -0.0745051 0.128165 -0.00117011 -0.223492 0.974705 
0.0113521 -0.0719225 0.128754 -0.00117011 -0.223492 0.974705 
0.00757512 -0.0860048 0.12554 -0.00117011 -0.223492 0.974705 
-0.00927929 -0.076858 0.127628 -0.00117011 -0.223492 0.974705 
0.0389588 -0.0706254 0.12905 -0.00117011 -0.223492 0.974705 
0.0474853 -0.0439342 0.135142 0.00117011 -0.223492 0.974705 
0.0364672 -0.0372607 0.136665 0.00117011 -0.223492 0.974705 
0.0430191 -0.0146454 0.141827 0.00117011 -0.223492 0.974705 
0.0132597 -0.044453 0.135024 0.00117011 -0.223492 0.974705 
0.0357672 -0.0487772 0.134037 0.00117011 -0.223492 0.974705 
0.00492415 -0.0630812 0.130772 0.00117011 -0.223492 0.974705 
0.0122593 -0.0471986 0.134397 0.00117011 -0.223492 0.974705 
0.0553927 -0.0333524 0.137557 0.00117011 -0.223492 0.974705 
0.0475438 -0.0385786 0.136364 0.00117011 -0.223492 0.974705 
0.0298058 -0.0454355 0.134799 0.00117011 -0.223492 0.974705 
0.0444492 -0.0461332 0.13464 0.00117011 -0.223492 0.974705 
-0.00305941 -0.0560313 0.132381 0.00117011 -0.223492 0.974705 
0.0129302 -0.0383224 0.136423 0.00117011 -0.223492 0.974705 
0.0389618 -0.00565086 0.14388 0.00117011 -0.223492 0.974705 
-0.0295386 -0.0579619 0.131941 0.00117011 -0.223492 0.974705 
-0.0396361 -0.0415492 0.135687 0.00117011 -0.223492 0.974705 
-0.0401682 -0.0194694 0.140727 0.00117011 -0.223492 0.974705 
-0.0135375 -0.0624109 0.130925 0.00117011 -0.223492 0.974705 
-0.0280364 -0.0814903 0.12657 0.00117011 -0.223492 0.974705 
-0.0208721 -0.00925149 0.143059 0.00117011 -0.223492 0.974705 
-0.0296995 -0.0546023 0.132707 0.00117011 -0.223492 0.974705 
0.0111132 -0.0295765 0.138419 0.00117011 -0.223492 0.974705 
-0.0169931 -0.056815 0.132202 0.00117011 -0.223492 0.974705 
-0.0319341 -0.0383491 0.136417 0.00117011 -0.223492 0.974705 
-0.0251458 -0.0565172 0.13227 0.00117011 -0.223492 0.974705 
-0.0437547 -0.00982501 0.142928 0.00117011 -0.223492 0.974705 
0.0256575 -0.00913775 0.143084 0.00117011 -0.223492 0.974705 
-0.0311276 -0.0721987 0.128691 0.00117011 -0.223492 0.974705 
-0.0190628 -0.0448774 0.134927 0.00117011 -0.223492 0.974705 
0.00495685 -0.0251893 0.139421 0.00117011 -0.223492 0.974705 
-0.0158324 -0.0353631 0.137099 0.00117011 -0.223492 0.974705 
0.00683464 -0.0122902 0.142365 0.00117011 -0.223492 0.974705 
-0.0351393 -0.0638408 0.130599 0.00117011 -0.223492 0.974705 
0.0127029 -0.0291767 0.13851 0.00117011 -0.223492 0.974705 
-0.0285627 -0.0609384 0.131261 0.00117011 -0.223492 0.974705 
-0.0413148 -0.0633252 0.130716 -0.00117011 -0.223492 0.974705 
-0.0531598 -0.0477865 0.134263 -0.00117011 -0.223492 0.974705 
-0.039007 -0.0757243 0.127886 -0.00117011 -0.223492 0.974705 
-0.0453586 -0.0118989 0.142455 -0.00117011 -0.223492 0.974705 
-0.0562796 -0.0419405 0.135597 -0.00117011 -0.223492 0.974705 
-0.0499121 -0.0299881 0.138326 -0.00117011 -0.223492 0.974705 
0.0255682 -0.0786679 0.0640541 0.081826 -0.952039 -0.294833 
0.00715174 -0.0693994 0.028958 0.081826 -0.952039 -0.294833 
0.0274989 -0.0664177 0.0250442 0.081826 -0.952039 -0.294833 
-0.00490819 -0.0680582 0.0212414 0.081826 -0.952039 -0.294833 
0.0247161 -0.0769465 0.0582573 0.081826 -0.952039 -0.294833 
0.0293889 -0.0612939 0.00903201 0.081826 -0.952039 -0.294833 
0.0272392 -0.076032 0.056013 0.081826 -0.952039 -0.294833 
0.0207893 -0.0775512 0.0591068 0.081826 -0.952039 -0.294833 
0.0279481 -0.0744015 0.0509478 0.081826 -0.952039 -0.294833 
0.0060399 -0.0796201 0.0616452 0.081826 -0.952039 -0.294833 
0.0179648 -0.0632447 0.0121227 0.081826 -0.952039 -0.294833 
0.0196924 -0.0689256 0.0309496 0.081826 -0.952039 -0.294833 
-0.00174263 -0.0668825 0.0183341 0.081826 -0.952039 -0.294833 
0.00999302 -0.0601162 -0.000216795 0.081826 -0.952039 -0.294833 
0.0322334 -0.0671897 0.0288662 0.081826 -0.952039 -0.294833 
-0.0150385 -0.0684697 0.0197252 0.081826 -0.952039 -0.294833 
0.00514865 -0.0690276 0.0271951 0.081826 -0.952039 -0.294833 
-0.0208096 -0.0657546 0.00933871 0.081826 -0.952039 -0.294833 
0.0256238 -0.0715969 0.0412397 0.081826 -0.952039 -0.294833 
0.0133581 -0.0716374 0.0379263 0.081826 -0.952039 -0.294833 
0.017294 -0.0683343 0.0283671 0.081826 -0.952039 -0.294833 
-0.000576917 -0.0741902 0.0422559 0.081826 -0.952039 -0.294833 
0.0147755 -0.0892573 0.0952135 0.081826 -0.952039 -0.294833 
0.00484093 -0.0842238 0.0761724 0.081826 -0.952039 -0.294833 
0.0314514 -0.0728881 0.0470449 0.081826 -0.952039 -0.294833 
0.00656524 -0.0936489 0.106699 0.0930517 -0.950175 -0.297503 
0.0100544 -0.0976196 0.12042 0.0930517 -0.950175 -0.297503 
-0.00139566 -0.0816051 0.0659021 0.0930517 -0.950175 -0.297503 
0.00337505 -0.0949498 0.109841 0.0930517 -0.950175 -0.297503 
-0.00715058 -0.0783531 0.0537604 0.0930517 -0.950175 -0.297503 
-0.0152256 -0.0781773 0.0506795 0.0930517 -0.950175 -0.297503 
0.0190551 -0.09516 0.115406 0.0930517 -0.950175 -0.297503 
0.0163548 -0.0968694 0.120001 0.0930517 -0.950175 -0.297503 
-0.0200124 -0.0690436 0.0201308 0.0930517 -0.950175 -0.297503 
-0.0114987 0.0434436 0.0860562 -0.038144 0.752991 0.656924 
-0.0124164 -0.00524636 0.141866 -0.038144 0.752991 0.656924 
0.00283524 0.0226268 0.110742 -0.038144 0.752991 0.656924 
-0.00369898 0.00403015 0.131711 -0.038144 0.752991 0.656924 
-0.0148956 0.0103883 0.12379 -0.038144 0.752991 0.656924 
-0.0193295 0.0236285 0.108351 -0.038144 0.752991 0.656924 
0.0297334 -0.00371806 0.142473 -0.038144 0.752991 0.656924 
-0.0184565 0.0182316 0.114592 -0.038144 0.752991 0.656924 
0.0154514 0.0155817 0.119531 -0.038144 0.752991 0.656924 
-0.00281245 0.0129043 0.12158 -0.038144 0.752991 0.656924 
-0.024162 0.0505446 0.0772003 -0.038144 0.752991 0.656924 
-0.0334168 -0.00340657 0.13858 -0.038144 0.752991 0.656924 
-0.0319756 0.0274683 0.103238 -0.038144 0.752991 0.656924 
0.00456357 0.0258655 0.107123 -0.038144 0.752991 0.656924 
-0.00313785 0.00669288 0.128688 -0.038144 0.752991 0.656924 
-0.0307931 -0.00532398 0.140926 -0.038144 0.752991 0.656924 
-0.0312977 0.01119 0.121952 -0.038144 0.752991 0.656924 
-0.0383158 0.0076599 0.125609 -0.038144 0.752991 0.656924 
-0.0146687 0.0346871 0.0959249 -0.038144 0.752991 0.656924 
-0.0230746 0.0351959 0.0948706 -0.038144 0.752991 0.656924 
0.0110884 0.0217957 0.112157 -0.038144 0.752991 0.656924 
-0.00924399 0.0246836 0.107706 -0.038144 0.752991 0.656924 
-0.0397512 0.00401122 0.129715 -0.038144 0.752991 0.656924 
-0.00733395 0.0219139 0.11099 -0.038144 0.752991 0.656924 
0.0299897 0.0104803 0.127097 -0.130054 0.704085 0.698105 
0.0321796 0.00514469 0.1329 -0.130054 0.704085 0.698105 
-0.00120419 0.047903 0.0834544 -0.130054 0.704085 0.698105 
0.0307256 0.00926832 0.12846 -0.130054 0.704085 0.698105 
-0.00761199 0.0441942 0.0860138 -0.130054 0.704085 0.698105 
2.80496e-05 0.0438705 0.0877614 -0.130054 0.704085 0.698105 
0.0145624 0.0438996 0.0904338 -0.130054 0.704085 0.698105 
-0.00516935 0.0386139 0.0921111 -0.130054 0.704085 0.698105 
0.0209816 0.028645 0.107053 -0.130054 0.704085 0.698105 
-0.0459217 -0.0633946 0.066925 -0.873333 -0.486974 -0.0120737 
-0.0599585 -0.0369674 0.0161384 -0.873333 -0.486974 -0.0120737 
-0.0532012 -0.0500139 0.0534572 -0.873333 -0.486974 -0.0120737 
-0.062215 -0.0325967 0.00312105 -0.873333 -0.486974 -0.0120737 
-0.0553621 -0.0458208 0.0406922 -0.873333 -0.486974 -0.0120737 
-0.0678867 -0.022537 0.00713159 -0.873333 -0.486974 -0.0120737 
-0.0709158 -0.0169883 0.00228628 -0.873333 -0.486974 -0.0120737 
-0.0490066 -0.0578742 0.0671705 -0.873333 -0.486974 -0.0120737 
-0.0532287 -0.0493821 0.0303509 -0.873333 -0.486974 -0.0120737 
-0.0622528 -0.0342213 0.072979 -0.873968 -0.485835 -0.0120455 
-0.0483751 -0.059682 0.0953642 -0.873968 -0.485835 -0.0120455 
-0.0485588 -0.0589611 0.0787944 -0.873968 -0.485835 -0.0120455 
-0.0657986 -0.0277512 0.0687524 -0.873968 -0.485835 -0.0120455 
-0.0522581 -0.0522694 0.0768605 -0.873968 -0.485835 -0.0120455 
-0.0652972 -0.0289308 0.0805608 -0.873968 -0.485835 -0.0120455 
-0.0481622 -0.0608621 0.129169 -0.873968 -0.485835 -0.0120455 
-0.0632611 -0.0331096 0.102638 -0.873968 -0.485835 -0.0120455 
-0.0463344 -0.0640381 0.124601 -0.873968 -0.485835 -0.0120455 
-0.0496709 -0.0569971 0.0802366 -0.873968 -0.485835 -0.0120455 
-0.0539696 -0.0500928 0.114934 -0.873968 -0.485835 -0.0120455 
-0.0473005 -0.0612089 0.0782476 -0.873968 -0.485835 -0.0120455 
-0.0623659 -0.0345413 0.0951535 -0.873968 -0.485835 -0.0120455 
-0.0607604 -0.0379807 0.118677 -0.873968 -0.485835 -0.0120455 
-0.0663559 -0.0264484 0.0559704 -0.873968 -0.485835 -0.0120455 
-0.0474289 -0.0619866 0.120989 -0.873968 -0.485835 -0.0120455 
-0.0633404 -0.0327007 0.0913429 -0.873968 -0.485835 -0.0120455 
-0.0493896 -0.0574511 0.0780569 -0.873968 -0.485835 -0.0120455 
-0.0593817 -0.0404185 0.117011 -0.873968 -0.485835 -0.0120455 
-0.0539831 -0.0504129 0.129535 -0.873968 -0.485835 -0.0120455 
-0.0360642 -0.0822659 0.115125 -0.873968 -0.485835 -0.0120455 
-0.0503356 -0.0557986 0.0800511 -0.873968 -0.485835 -0.0120455 
-0.0365833 -0.0814847 0.121541 -0.873968 -0.485835 -0.0120455 
-0.0584628 -0.0423855 0.130414 -0.873968 -0.485835 -0.0120455 
-0.0524134 -0.0519132 0.07359 -0.873968 -0.485835 -0.0120455 
0.0544076 0.00606672 0.105707 0.895167 0.338108 0.290445 
0.0548689 0.0165843 0.0920291 0.895167 0.338108 0.290445 
0.0575716 0.0171985 0.0830013 0.895167 0.338108 0.290445 
0.051838 0.00645079 0.113162 0.895167 0.338108 0.290445 
0.0637787 0.0240916 0.0558775 0.895167 0.338108 0.290445 
0.0587318 0.00336051 0.0955626 0.895167 0.338108 0.290445 
0.052943 -0.0191409 0.139593 0.895167 0.338108 0.290445 
0.0622188 0.0127658 0.073876 0.895167 0.338108 0.290445 
0.058404 0.00285573 0.097159 0.895167 0.338108 0.290445 
0.0589543 0.0123573 0.0843918 0.895167 0.338108 0.290445 
0.0588211 -0.0298278 0.133971 0.895167 0.338108 0.290445 
0.0562441 -0.00217208 0.109662 0.895167 0.338108 0.290445 
0.0619686 -0.0219824 0.115147 0.895167 0.338108 0.290445 
0.0617548 0.00102101 0.0889922 0.895167 0.338108 0.290445 
0.0566181 -0.0167009 0.125446 0.895167 0.338108 0.290445 
-0.0642205 0.0219583 0.004773 -0.956016 0.292151 -0.0261071 
-0.06895 0.00714981 0.0126028 -0.956016 0.292151 -0.0261071 
-0.0643221 0.0229418 0.0199399 -0.956016 0.292151 -0.0261071 
-0.0623685 0.0306459 0.0349943 -0.956016 0.292151 -0.0261071 
-0.0659969 0.0186638 0.0338435 -0.956016 0.292151 -0.0261071 
-0.0670916 0.0146238 0.0285997 -0.956016 0.292151 -0.0261071 
-0.0621955 0.0297844 0.0185437 -0.956016 0.292151 -0.0261071 
-0.0335614 0.059879 0.0189512 -0.329907 0.938965 0.0975027 
-0.0139834 0.0662426 0.0238406 -0.329907 0.938965 0.0975027 
-0.0199473 0.062122 0.0432662 -0.329907 0.938965 0.0975027 
-0.0287416 0.0625511 0.0095598 -0.329907 0.938965 0.0975027 
-0.00793747 0.0703866 0.00446714 -0.329907 0.938965 0.0975027 
-0.0295947 0.059714 0.0338807 -0.329907 0.938965 0.0975027 
-0.0229313 0.0602617 0.051055 -0.329907 0.938965 0.0975027 
-0.0334955 0.0604375 0.0138197 -0.329907 0.938965 0.0975027 
-0.0157666 0.0674629 0.00614423 -0.329907 0.938965 0.0975027 
-0.00930465 0.0687659 0.0154003 -0.329907 0.938965 0.0975027 
-0.00423393 0.0696248 0.0242324 -0.329907 0.938965 0.0975027 
-0.00354371 0.070423 0.0189052 -0.329907 0.938965 0.0975027 
0.0644951 -0.0245825 0.0725477 0.956196 -0.292411 -0.0135718 
0.0635825 -0.0274002 0.0691392 0.956196 -0.292411 -0.0135718 
0.0611387 -0.0381006 0.122988 0.956196 -0.292411 -0.0135718 
0.0625744 -0.0273694 0.00262489 0.956196 -0.292411 -0.0135718 
0.0622479 -0.0306383 0.0465353 0.956196 -0.292411 -0.0135718 
0.0633178 -0.0298931 0.101599 0.956196 -0.292411 -0.0135718 
0.0641283 -0.0256531 0.0699371 0.956196 -0.292411 -0.0135718 
0.0630544 -0.0297445 0.0814147 0.956196 -0.292411 -0.0135718 
0.0652134 -0.0193502 0.0150532 0.956196 -0.292411 -0.0135718 
0.0609334 -0.0378801 0.105168 0.956196 -0.292411 -0.0135718 
0.061466 -0.0341828 0.0661809 0.956196 -0.292411 -0.0135718 
0.0662546 -0.017784 0.0518488 0.956196 -0.292411 -0.0135718 
0.0693298 -0.00566576 0.010966 0.956196 -0.292411 -0.0135718 
0.0645139 -0.0252148 0.0863971 0.956196 -0.292411 -0.0135718 
0.0630034 -0.02618 0.00692606 0.956196 -0.292411 -0.0135718 
0.063432 -0.0252663 0.0167027 0.956196 -0.292411 -0.0135718 
0.012243 0.0672883 0.0149695 0.291939 0.956436 -0.0012215 
0.00385482 0.0698504 0.0158259 0.291939 0.956436 -0.0012215 
0.00402927 0.0697942 0.0126032 0.291939 0.956436 -0.0012215 
0.0337576 0.0607245 0.0214653 0.291939 0.956436 -0.0012215 
0.0300621 0.0618687 0.039274 0.291939 0.956436 -0.0012215 
0.0148659 0.066491 0.0190829 0.291939 0.956436 -0.0012215 
0.0297815 0.0619539 0.0387623 0.291939 0.956436 -0.0012215 
0.0137392 0.0668424 0.0273589 0.291939 0.956436 -0.0012215 
0.0267663 0.0628516 0.0127453 0.291939 0.956436 -0.0012215 
-0.0623225 -0.0345401 0.121475 -0.994279 0.0569116 0.090389 
-0.0659773 -0.0227373 0.0739048 -0.994279 0.0569116 0.090389 
-0.0711793 -0.0138191 0.0112144 -0.994279 0.0569116 0.090389 
-0.0664457 -0.0203811 0.0672701 -0.994279 0.0569116 0.090389 
-0.0722154 -0.0122986 -0.00110919 -0.994279 0.0569116 0.090389 
-0.0635276 -0.0209498 0.0980651 -0.992618 0.0761803 0.0943726 
-0.068262 0.00126332 0.0308682 -0.992618 0.0761803 0.0943726 
-0.0650241 -0.00393418 0.0687327 -0.992618 0.0761803 0.0943726 
-0.0625381 -0.0224508 0.109566 -0.992618 0.0761803 0.0943726 
-0.0697998 -0.00872036 0.0229657 -0.992618 0.0761803 0.0943726 
-0.0649033 0.0100533 0.0586637 -0.992618 0.0761803 0.0943726 
-0.0673701 -0.00699874 0.0468283 -0.992618 0.0761803 0.0943726 
-0.0666162 -0.00766615 0.0552049 -0.992618 0.0761803 0.0943726 
-0.0674252 -0.0113667 0.0497919 -0.992618 0.0761803 0.0943726 
-0.0650237 0.0176077 0.0512962 -0.992618 0.0761803 0.0943726 
-0.0641479 -0.0273456 0.0967957 -0.992618 0.0761803 0.0943726 
-0.0626204 -0.0206693 0.107269 -0.992618 0.0761803 0.0943726 
-0.0655825 0.0207604 0.042935 -0.992618 0.0761803 0.0943726 
-0.064156 -0.0196674 0.0904945 -0.992618 0.0761803 0.0943726 
-0.0661972 0.0114107 0.0441151 -0.992618 0.0761803 0.0943726 
-0.0644757 0.0210135 0.0542346 -0.992618 0.0761803 0.0943726 
-0.0669079 -0.018563 0.0609957 -0.992618 0.0761803 0.0943726 
0.0582075 0.0240071 0.00169815 0.874912 0.469569 -0.118463 
0.0616813 0.0287149 0.045733 0.874912 0.469569 -0.118463 
0.0563497 0.0282338 0.00467869 0.874912 0.469569 -0.118463 
0.0595318 0.0294565 0.0328614 0.874912 0.469569 -0.118463 
0.0584033 0.0280594 0.0190765 0.874912 0.469569 -0.118463 
0.0646296 0.0233935 0.0464559 0.874912 0.469569 -0.118463 
0.0654551 0.0211336 0.0436301 0.874912 0.469569 -0.118463 
0.0560553 0.0329111 0.0209155 0.874912 0.469569 -0.118463 
0.053732 0.0391401 0.0283528 0.874912 0.469569 -0.118463 
0.0667269 0.0127528 0.0200044 0.874912 0.469569 -0.118463 
0.0472139 0.0454602 0.00533707 0.874912 0.469569 -0.118463 
0.0237208 0.0593431 0.060053 0.0160388 0.956161 0.2924 
0.00846488 0.0621344 0.0517414 0.0160388 0.956161 0.2924 
0.0130242 0.0640464 0.04526 0.0160388 0.956161 0.2924 
0.00403548 0.0670644 0.035879 0.0160388 0.956161 0.2924 
-0.0119992 0.0593396 0.0619395 0.0160388 0.956161 0.2924 
-0.00174419 0.0686364 0.0310505 0.0160388 0.956161 0.2924 
0.00106078 0.0615738 0.0539603 0.0160388 0.956161 0.2924 
-0.00360129 0.0680583 0.0330354 0.0160388 0.956161 0.2924 
0.00276746 0.056372 0.0708527 0.0160388 0.956161 0.2924 
-0.019462 0.0579977 0.0667121 0.0160388 0.956161 0.2924 
-0.0586034 0.0358919 0.030834 -0.673303 0.721939 0.159586 
-0.0500833 0.0498306 0.00383001 -0.673303 0.721939 0.159586 
-0.0524691 0.0467868 0.00751511 -0.673303 0.721939 0.159586 
-0.0582562 0.0405684 0.011198 -0.673303 0.721939 0.159586 
-0.0430544 0.0445877 0.0558706 -0.667816 0.725622 0.165813 
-0.0532005 0.0390459 0.0390691 -0.667816 0.725622 0.165813 
-0.0333649 0.0558289 0.0456792 -0.667816 0.725622 0.165813 
-0.0402676 0.0579943 0.00806913 -0.667816 0.725622 0.165813 
-0.0410766 0.0528024 0.0276794 -0.667816 0.725622 0.165813 
-0.045523 0.0491929 0.0255248 -0.667816 0.725622 0.165813 
-0.0416705 0.0533536 0.0228342 -0.667816 0.725622 0.165813 
-0.0358875 0.0555042 0.0368572 -0.667816 0.725622 0.165813 
-0.038398 0.0483955 0.0580049 -0.667816 0.725622 0.165813 
-0.0429992 0.0468941 0.0459228 -0.667816 0.725622 0.165813 
0.0588702 -0.0401004 0.0601494 0.874404 -0.484885 -0.0174612 
0.0343993 -0.0862974 0.124941 0.874404 -0.484885 -0.0174612 
0.0535396 -0.0514051 0.111111 0.874404 -0.484885 -0.0174612 
0.0559385 -0.0455841 0.0663989 0.874404 -0.484885 -0.0174612 
0.0591071 -0.0393802 0.0514201 0.874404 -0.484885 -0.0174612 
0.0553462 -0.0478357 0.101614 0.874404 -0.484885 -0.0174612 
0.0423592 -0.0711641 0.10071 0.874404 -0.484885 -0.0174612 
0.0541299 -0.0503859 0.112375 0.874404 -0.484885 -0.0174612 
0.0489115 -0.0585395 0.0757926 0.874404 -0.484885 -0.0174612 
0.0503205 -0.057712 0.126456 0.874404 -0.484885 -0.0174612 
0.0448322 -0.0660871 0.0820419 0.874404 -0.484885 -0.0174612 
0.0579582 -0.0401218 0.0120957 0.874404 -0.484885 -0.0174612 
0.0537421 -0.0485685 0.0377249 0.874404 -0.484885 -0.0174612 
0.0520313 -0.052166 0.0531725 0.874404 -0.484885 -0.0174612 
0.0558338 -0.045292 0.0521408 0.874404 -0.484885 -0.0174612 
0.0529673 -0.0505754 0.0559276 0.874404 -0.484885 -0.0174612 
0.0526733 -0.0511332 0.0567922 0.874404 -0.484885 -0.0174612 
0.0472494 -0.061737 0.081967 0.874404 -0.484885 -0.0174612 
0.0446254 -0.0677661 0.120839 0.874404 -0.484885 -0.0174612 
0.0610662 -0.0385776 0.132189 0.874404 -0.484885 -0.0174612 
0.0598041 -0.0407774 0.130105 0.874404 -0.484885 -0.0174612 
0.0592752 -0.0412744 0.116621 0.874404 -0.484885 -0.0174612 
0.0377627 -0.079781 0.111087 0.874404 -0.484885 -0.0174612 
-0.0099262 -0.0928236 0.109342 -0.289286 -0.934939 -0.205435 
-0.0263499 -0.0815097 0.0810845 -0.289286 -0.934939 -0.205435 
-0.0144046 -0.0860573 0.08488 -0.289286 -0.934939 -0.205435 
-0.00755782 -0.0883501 0.0856271 -0.289286 -0.934939 -0.205435 
-0.0289547 -0.0773051 0.0656318 -0.289286 -0.934939 -0.205435 
-0.00339421 -0.0963336 0.116075 -0.289286 -0.934939 -0.205435 
-0.0271356 -0.0787494 0.0696319 -0.289286 -0.934939 -0.205435 
-0.023213 -0.0818281 0.0780943 -0.289286 -0.934939 -0.205435 
-0.00968402 -0.0955885 0.121585 -0.289286 -0.934939 -0.205435 
-0.0264158 -0.0899287 0.1195 -0.289286 -0.934939 -0.205435 
-0.0202731 -0.0764664 0.0495279 -0.289286 -0.934939 -0.205435 
-0.0231623 -0.0786262 0.0634479 -0.289286 -0.934939 -0.205435 
-0.00977032 -0.0887437 0.09055 -0.289286 -0.934939 -0.205435 
0.0650848 -0.0170672 0.0766926 0.994408 0.0613832 0.0859365 
0.0639397 -0.018558 0.0910479 0.994408 0.0613832 0.0859365 
0.0662895 0.016648 0.0383297 0.994408 0.0613832 0.0859365 
0.0636469 -0.00344564 0.083507 0.994408 0.0613832 0.0859365 
0.0648974 -0.0153411 0.0776168 0.994408 0.0613832 0.0859365 
0.067199 0.000448419 0.0395075 0.994408 0.0613832 0.0859365 
0.0681505 -0.00659719 0.0335754 0.994408 0.0613832 0.0859365 
0.0686707 0.00312725 0.0205073 0.994408 0.0613832 0.0859365 
0.0686127 -0.0086847 0.0297272 0.994408 0.0613832 0.0859365 
0.0693537 0.00388689 0.0120395 0.994408 0.0613832 0.0859365 
0.0637435 -0.0174338 0.0925092 0.994408 0.0613832 0.0859365 
0.066763 -0.00278472 0.046902 0.994408 0.0613832 0.0859365 
0.0692634 -0.00225818 0.0175334 0.994408 0.0613832 0.0859365 
0.0644771 -0.0074675 0.0767923 0.994408 0.0613832 0.0859365 
0.0691274 0.0011812 0.0166213 0.994408 0.0613832 0.0859365 
0.0668066 0.0110714 0.0363694 0.994408 0.0613832 0.0859365 
-0.0615796 0.0071322 0.081699 -0.858813 0.393173 0.328415 
-0.0618009 0.0206574 0.0649365 -0.858813 0.393173 0.328415 
-0.0592325 -0.0279355 0.129792 -0.858813 0.393173 0.328415 
-0.0559364 -0.0192453 0.128003 -0.858813 0.393173 0.328415 
-0.0513696 -0.0067004 0.124919 -0.858813 0.393173 0.328415 
-0.0558745 -0.0153334 0.123483 -0.858813 0.393173 0.328415 
-0.0557189 -0.00646131 0.113273 -0.858813 0.393173 0.328415 
-0.0564402 0.0100112 0.0916778 -0.858813 0.393173 0.328415 
-0.0508199 -0.0188316 0.140872 -0.858813 0.393173 0.328415 
-0.0566565 -0.00528944 0.109422 -0.858813 0.393173 0.328415 
0.0571332 0.0185 0.174251 0.000977516 0.999999 0.000977516 
0.0568019 0.0185 0.227193 0.000977516 0.999999 0.000977516 
0.058554 0.0185 0.203672 0.000977516 0.999999 0.000977516 
0.0571977 0.0185 0.218969 0.000977516 0.999999 0.000977516 
0.0469565 0.0185 0.213085 0.000977516 0.999999 0.000977516 
0.0232947 0.0185 0.162842 0.000977516 0.999999 0.000977516 
0.0493582 0.0185 0.169249 0.000977516 0.999999 0.000977516 
0.0338173 0.0185 0.168814 0.000977516 0.999999 0.000977516 
0.00958925 0.0185 0.145096 0.000977516 0.999999 0.000977516 
0.028517 0.0185 0.152866 0.000977516 0.999999 0.000977516 
0.04294 0.0185 0.187866 0.000977516 0.999999 0.000977516 
0.0524032 0.0185 0.177011 0.000977516 0.999999 0.000977516 
0.0358475 0.0185 0.205488 0.000977516 0.999999 0.000977516 
0.0302255 0.0185 0.190041 0.000977516 0.999999 0.000977516 
0.0262671 0.0185 0.195256 0.000977516 0.999999 0.000977516 
0.0364482 0.0185 0.16472 0.000977516 0.999999 0.000977516 
0.0478912 0.0185 0.160713 0.000977516 0.999999 0.000977516 
0.0383124 0.0185 0.198158 0.000977516 0.999999 0.000977516 
0.0272539 0.0185 0.160569 0.000977516 0.999999 0.000977516 
0.0295989 0.0185 0.215354 0.000977516 0.999999 0.000977516 
0.010145 0.0185 0.169286 0.000977516 0.999999 0.000977516 
-0.0145657 0.0185 0.155742 0.000977516 0.999999 0.000977516 
0.0328755 0.0185 0.218839 0.000977516 0.999999 0.000977516 
-0.00337942 0.0185 0.166813 0.000977516 0.999999 0.000977516 
-0.00609049 0.0185 0.162172 0.000977516 0.999999 0.000977516 
0.0051516 0.0185 0.158448 0.000977516 0.999999 0.000977516 
-0.0406239 0.0185 0.159247 0.000977516 0.999999 0.000977516 
-0.0137587 0.0185 0.183577 0.000977516 0.999999 0.000977516 
-0.023261 0.0185 0.148309 0.000977516 0.999999 0.000977516 
0.00861471 0.0185 0.203317 0.000977516 0.999999 0.000977516 
0.0219477 0.0185 0.202742 0.000977516 0.999999 0.000977516 
0.00299375 0.0185 0.166074 0.000977516 0.999999 0.000977516 
-0.0194493 0.0185 0.14531 0.000977516 0.999999 0.000977516 
-0.000313098 0.0185 0.168163 0.000977516 0.999999 0.000977516 
-0.0162854 0.0185 0.177945 0.000977516 0.999999 0.000977516 
-0.00769794 0.0185 0.188798 0.000977516 0.999999 0.000977516 
0.00697966 0.0185 0.190148 0.000977516 0.999999 0.000977516 
-0.0189737 0.0185 0.160231 0.000977516 0.999999 0.000977516 
-0.0512079 0.0185 0.171851 0.000977516 0.999999 0.000977516 
0.0072473 0.0185 0.209741 0.000977516 0.999999 0.000977516 
0.0341883 0.0185 0.239676 0.000977516 0.999999 0.000977516 
-0.00769386 0.0185 0.231077 0.000977516 0.999999 0.000977516 
-0.0155288 0.0185 0.192678 0.000977516 0.999999 0.000977516 
-0.0658342 0.0185 0.215999 0.000977516 0.999999 0.000977516 
0.00220693 0.0185 0.228384 0.000977516 0.999999 0.000977516 
-0.0424525 0.0185 0.186081 0.000977516 0.999999 0.000977516 
0.00202613 0.0185 0.216685 0.000977516 0.999999 0.000977516 
-0.00528233 0.0185 0.211435 0.000977516 0.999999 0.000977516 
-0.0247336 0.0185 0.1916 0.000977516 0.999999 0.000977516 
-0.0361928 0.0185 0.192325 0.000977516 0.999999 0.000977516 
-0.0487393 0.0185 0.197034 0.000977516 0.999999 0.000977516 
0.0269467 0.0185 0.22911 0.000977516 0.999999 0.000977516 
-0.0398532 0.0185 0.220629 0.000977516 0.999999 0.000977516 
-0.0112366 0.0185 0.209608 0.000977516 0.999999 0.000977516 
-0.00367256 0.0185 0.222754 0.000977516 0.999999 0.000977516 
-0.0442993 0.0185 0.2202 0.000977516 0.999999 0.000977516 
0.00496389 0.0185 0.220877 0.000977516 0.999999 0.000977516 
-0.0295922 0.0185 0.198059 0.000977516 0.999999 0.000977516 
-0.0410177 0.0185 0.219451 0.000977516 0.999999 0.000977516 
-0.0203221 0.0185 0.222711 0.000977516 0.999999 0.000977516 
-0.0205076 0.0185 0.223014 0.000977516 0.999999 0.000977516 
-0.0545757 0.0185 0.199462 0.000977516 0.999999 0.000977516 
-0.0280019 0.0185 0.228458 0.000977516 0.999999 0.000977516 
-0.0582608 0.0185 0.224946 0.000977516 0.999999 0.000977516 
-0.00857635 0.0185 0.244184 0.000977516 0.999999 0.000977516 
-0.0439252 0.0185 0.237715 0.000977516 0.999999 0.000977516 
-0.0419142 0.0185 0.243367 0.000977516 0.999999 0.000977516 
-0.00399045 0.0185 0.246544 0.000977516 0.999999 0.000977516 
-0.0506041 0.0185 0.240503 0.000977516 0.999999 0.000977516 
0.0088976 0.0185 0.245148 0.000977516 0.999999 0.000977516 
-0.00346059 0.0185 0.238964 0.000977516 0.999999 0.000977516 
-0.00925042 0.0185 0.23928 0.000977516 0.999999 0.000977516 
0.035992 0.0185 0.252672 0.000977516 0.999999 0.000977516 
0.0293565 0.0185 0.252147 0.000977516 0.999999 0.000977516 
-0.0126563 0.0185 0.259126 0.000977516 0.999999 0.000977516 
-0.00821462 0.0185 0.257591 0.000977516 0.999999 0.000977516 
0.0241053 0.0185 0.25195 0.000977516 0.999999 0.000977516 
0.0396614 0.0185 0.253356 0.000977516 0.999999 0.000977516 
0.0484485 -0.0972935 0.166012 0.374396 -0.861266 -0.343582 
0.0451722 -0.101522 0.173036 0.374396 -0.861266 -0.343582 
0.0412268 -0.0933688 0.148293 0.374396 -0.861266 -0.343582 
0.0148074 -0.0874806 0.104701 0.374396 -0.861266 -0.343582 
0.0490836 -0.0992083 0.171505 0.374396 -0.861266 -0.343582 
0.0230076 -0.0847421 0.106785 0.374396 -0.861266 -0.343582 
0.0428105 -0.103821 0.176222 0.374396 -0.861266 -0.343582 
0.0165312 -0.0897244 0.112207 0.374396 -0.861266 -0.343582 
0.0207831 -0.0837405 0.101847 0.374396 -0.861266 -0.343582 
0.0310276 -0.0961966 0.144251 0.374396 -0.861266 -0.343582 
0.0196462 -0.0923538 0.122198 0.374396 -0.861266 -0.343582 
0.0409654 -0.0899643 0.139473 0.374396 -0.861266 -0.343582 
0.0245119 -0.085606 0.110592 0.374396 -0.861266 -0.343582 
-0.00582457 -0.089813 0.100746 -0.374396 -0.861266 -0.343582 
-0.0312542 -0.084462 0.115082 -0.374396 -0.861266 -0.343582 
-0.0216205 -0.088982 0.1159 -0.374396 -0.861266 -0.343582 
-0.0277017 -0.098536 0.146486 -0.374396 -0.861266 -0.343582 
-0.0480388 -0.100744 0.174214 -0.374396 -0.861266 -0.343582 
-0.0192617 -0.0910651 0.118548 -0.374396 -0.861266 -0.343582 
-0.0413629 -0.0962059 0.155553 -0.374396 -0.861266 -0.343582 
-0.0412805 -0.102451 0.171119 -0.374396 -0.861266 -0.343582 
-0.0324744 -0.101775 0.159813 -0.374396 -0.861266 -0.343582 
-0.0425022 -0.0784554 0.112299 -0.374396 -0.861266 -0.343582 
-0.0400234 -0.0779292 0.108275 -0.374396 -0.861266 -0.343582 
-0.0426535 -0.101317 0.169773 -0.374396 -0.861266 -0.343582 
-0.0207711 -0.0908167 0.119572 -0.374396 -0.861266 -0.343582 
0.0410827 -0.113801 0.22814 0.887065 -0.405895 0.219921 
0.0410687 -0.107834 0.239294 0.887065 -0.405895 0.219921 
0.0490739 -0.102293 0.217195 0.887065 -0.405895 0.219921 
0.0443087 -0.102737 0.235657 0.887065 -0.405895 0.219921 
-0.0642445 -0.00482417 0.173314 -0.884609 0.381684 -0.267927 
-0.0616856 -0.0130657 0.153173 -0.884609 0.381684 -0.267927 
-0.0616757 0.00165171 0.174043 -0.884609 0.381684 -0.267927 
-0.0507139 0.0167635 0.159369 -0.884609 0.381684 -0.267927 
-0.0529881 0.00571296 0.151171 -0.884609 0.381684 -0.267927 
-0.0632751 0.00390722 0.182519 -0.884609 0.381684 -0.267927 
-0.0631055 0.00361546 0.181545 -0.884609 0.381684 -0.267927 
-0.0549689 0.00604697 0.158175 -0.884609 0.381684 -0.267927 
-0.0506121 0.0143155 0.155556 -0.884609 0.381684 -0.267927 
-0.0594161 -0.0239014 0.130302 -0.884609 0.381684 -0.267927 
-0.0574967 -0.00818671 0.146293 -0.884609 0.381684 -0.267927 
-0.0469406 -0.0935902 0.242016 -0.887065 -0.405895 0.219921 
-0.0468344 -0.0993709 0.231695 -0.887065 -0.405895 0.219921 
-0.0449274 -0.111978 0.21597 -0.887065 -0.405895 0.219921 
-0.0465358 -0.0975977 0.236202 -0.887065 -0.405895 0.219921 
-0.0501972 -0.0983075 0.220061 -0.887065 -0.405895 0.219921 
0.0165909 0.00348897 0.129416 0.362963 0.638881 -0.678298 
0.0590107 -0.0260696 0.12427 0.362963 0.638881 -0.678298 
0.0133522 0.0159664 0.139428 0.362963 0.638881 -0.678298 
0.0371424 0.0133947 0.149724 0.362963 0.638881 -0.678298 
0.0365144 0.0106764 0.14683 0.362963 0.638881 -0.678298 
0.0232438 -0.000723947 0.129007 0.362963 0.638881 -0.678298 
0.0350572 -0.00429664 0.131959 0.362963 0.638881 -0.678298 
0.0312233 -0.00526741 0.128996 0.362963 0.638881 -0.678298 
0.0451941 0.00873305 0.14964 0.362963 0.638881 -0.678298 
0.0142852 0.012825 0.13697 0.362963 0.638881 -0.678298 
0.0500875 0.0166219 0.159681 0.362963 0.638881 -0.678298 
0.0496703 -0.00194638 0.141982 0.362963 0.638881 -0.678298 
0.0452983 0.00379395 0.145047 0.362963 0.638881 -0.678298 
0.0485091 0.015708 0.157977 0.362963 0.638881 -0.678298 
0.0558635 -0.00484845 0.142561 0.362963 0.638881 -0.678298 
0.0563093 0.00821656 0.237624 0.881875 -0.0365755 0.470062 
0.0568972 -0.0190529 0.234474 0.881875 -0.0365755 0.470062 
0.0583238 0.0165967 0.234485 0.881875 -0.0365755 0.470062 
0.0529995 0.00855738 0.243842 0.881875 -0.0365755 0.470062 
0.0488534 -0.0636663 0.24617 0.881875 -0.0365755 0.470062 
0.0576543 -0.00186031 0.23435 0.881875 -0.0365755 0.470062 
0.0551639 -0.0192197 0.237705 0.881875 -0.0365755 0.470062 
0.0592622 0.00446607 0.231817 0.881875 -0.0365755 0.470062 
0.0547943 -0.0321932 0.237421 0.881875 -0.0365755 0.470062 
0.0531562 0.0178666 0.244249 0.881875 -0.0365755 0.470062 
0.0540078 0.000137368 0.241323 0.881875 -0.0365755 0.470062 
0.0506476 -0.00847203 0.246963 0.881875 -0.0365755 0.470062 
-0.057167 0.00848623 0.236073 -0.880835 -0.0338262 0.472214 
-0.0640105 -0.00778124 0.222104 -0.880835 -0.0338262 0.472214 
-0.0620207 -0.00368836 0.22612 -0.880835 -0.0338262 0.472214 
-0.0652038 0.0131931 0.221376 -0.880835 -0.0338262 0.472214 
-0.0597847 0.0177516 0.23184 -0.880835 -0.0338262 0.472214 
-0.0641878 0.0180079 0.223622 -0.880835 -0.0338262 0.472214 
-0.0552943 -0.0199809 0.237535 -0.880835 -0.0338262 0.472214 
-0.0581266 -0.0531392 0.22986 -0.880835 -0.0338262 0.472214 
-0.0610755 -0.0528748 0.224362 -0.880835 -0.0338262 0.472214 
-0.0606925 -0.027367 0.226907 -0.880835 -0.0338262 0.472214 
-0.0596023 -0.0452894 0.227662 -0.880835 -0.0338262 0.472214 
-0.0502219 -0.0399369 0.245594 -0.880835 -0.0338262 0.472214 
-0.0522474 0.00128584 0.24476 -0.880835 -0.0338262 0.472214 
-0.0517726 -0.0534884 0.241722 -0.880835 -0.0338262 0.472214 
-0.0565216 -0.018314 0.235359 -0.880835 -0.0338262 0.472214 
-0.0497725 0.0172044 0.250532 -0.880835 -0.0338262 0.472214 
-0.0536706 -0.00623853 0.241558 -0.880835 -0.0338262 0.472214 
-0.0518341 -0.0295533 0.243323 -0.880835 -0.0338262 0.472214 
-0.05035 -0.0361819 0.245624 -0.880835 -0.0338262 0.472214 
-0.0618434 -0.0218307 0.225151 -0.880835 -0.0338262 0.472214 
-0.0537987 -0.0670051 0.236962 -0.880835 -0.0338262 0.472214 
-0.0550294 -0.0614109 0.235061 -0.880835 -0.0338262 0.472214 
-0.0400267 -0.103191 0.241215 -0.280813 -0.39921 0.872797 
-0.0308552 -0.103142 0.244199 -0.280813 -0.39921 0.872797 
-0.0107874 -0.0954535 0.254192 -0.280813 -0.39921 0.872797 
-0.017928 -0.0903538 0.254214 -0.280813 -0.39921 0.872797 
-0.0415517 -0.0923252 0.245684 -0.280813 -0.39921 0.872797 
-0.0111323 -0.0938732 0.254802 -0.280813 -0.39921 0.872797 
0.00439958 -0.099883 0.257075 -0.280813 -0.39921 0.872797 
-0.00987781 -0.116907 0.244689 -0.280813 -0.39921 0.872797 
-0.0103987 -0.10923 0.248027 -0.280813 -0.39921 0.872797 
0.000360197 -0.101627 0.254974 -0.280813 -0.39921 0.872797 
0.000299267 -0.0990004 0.256153 -0.280813 -0.39921 0.872797 
0.0517023 -0.0544866 0.110676 0.918306 -0.335617 -0.209939 
0.0496745 -0.0918615 0.161287 0.918306 -0.335617 -0.209939 
0.0480502 -0.0831825 0.14041 0.918306 -0.335617 -0.209939 
0.0505809 -0.0763523 0.140568 0.918306 -0.335617 -0.209939 
0.0568648 -0.0559665 0.135513 0.918306 -0.335617 -0.209939 
0.0524052 -0.0860008 0.163859 0.918306 -0.335617 -0.209939 
0.0495908 -0.0623089 0.113921 0.918306 -0.335617 -0.209939 
0.0590478 -0.0376663 0.115914 0.918306 -0.335617 -0.209939 
0.0539278 -0.080723 0.162096 0.918306 -0.335617 -0.209939 
0.0529695 -0.0971168 0.183995 0.918306 -0.335617 -0.209939 
0.0519142 -0.10606 0.193622 0.918306 -0.335617 -0.209939 
0.0539671 -0.0846769 0.168555 0.918306 -0.335617 -0.209939 
0.0549724 -0.0655799 0.142561 0.918306 -0.335617 -0.209939 
0.0626607 -0.0643996 0.174166 0.918306 -0.335617 -0.209939 
0.0593125 -0.0504556 0.137407 0.918306 -0.335617 -0.209939 
0.0623196 -0.0536061 0.155514 0.918306 -0.335617 -0.209939 
0.0543087 -0.0957787 0.1877 0.918306 -0.335617 -0.209939 
0.0664949 -0.060631 0.18487 0.918306 -0.335617 -0.209939 
0.0591063 -0.055682 0.144822 0.918306 -0.335617 -0.209939 
0.0676218 -0.0535534 0.178521 0.918306 -0.335617 -0.209939 
0.061659 -0.0389557 0.129337 0.918306 -0.335617 -0.209939 
0.0633539 -0.0484532 0.151823 0.918306 -0.335617 -0.209939 
0.0635429 -0.0529851 0.159854 0.918306 -0.335617 -0.209939 
0.0556119 -0.0821994 0.171778 0.918306 -0.335617 -0.209939 
0.0681578 -0.0568558 0.186108 0.918306 -0.335617 -0.209939 
0.0567432 -0.0903908 0.189733 0.918306 -0.335617 -0.209939 
0.0612745 -0.0600943 0.161282 0.918306 -0.335617 -0.209939 
0.0576514 -0.0776487 0.173423 0.918306 -0.335617 -0.209939 
0.0386517 -0.0215487 0.120511 0.00121668 0.288352 -0.957524 
0.0354149 -0.0291037 0.118236 0.00121668 0.288352 -0.957524 
0.0317204 -0.0516536 0.111448 0.00121668 0.288352 -0.957524 
0.0153433 -0.011071 0.123665 0.00121668 0.288352 -0.957524 
0.0389207 -0.0373151 0.115764 0.00121668 0.288352 -0.957524 
0.0423052 -0.0474342 0.112718 0.00121668 0.288352 -0.957524 
0.0240611 -0.0183804 0.121465 0.00121668 0.288352 -0.957524 
0.0452126 -0.0507498 0.11172 0.00121668 0.288352 -0.957524 
0.0328111 -0.0263567 0.119063 0.00121668 0.288352 -0.957524 
0.046254 -0.0604774 0.108792 0.00121668 0.288352 -0.957524 
0.0156031 -0.0719212 0.105346 0.00121668 0.288352 -0.957524 
0.0266033 -0.0465295 0.11299 0.00121668 0.288352 -0.957524 
0.0333469 -0.0622665 0.108253 0.00121668 0.288352 -0.957524 
0.00846829 -0.0469113 0.112875 0.00121668 0.288352 -0.957524 
0.00656745 -0.0127562 0.123158 0.00121668 0.288352 -0.957524 
0.00710794 -0.0224831 0.120229 0.00121668 0.288352 -0.957524 
0.0342967 -0.0604332 0.108805 0.00121668 0.288352 -0.957524 
0.00312863 -0.0324248 0.117237 0.00121668 0.288352 -0.957524 
0.00652493 -0.0153783 0.122368 0.00121668 0.288352 -0.957524 
0.0046404 -5.80857e-05 0.12698 0.00121668 0.288352 -0.957524 
0.0230709 -0.0436335 0.113862 0.00121668 0.288352 -0.957524 
0.0170357 -0.0296551 0.11807 0.00121668 0.288352 -0.957524 
0.00387662 -0.0346151 0.116577 0.00121668 0.288352 -0.957524 
0.0118555 -0.0292568 0.11819 0.00121668 0.288352 -0.957524 
-0.00333312 -0.0105703 0.123816 -0.00121668 0.288352 -0.957524 
-0.00779114 -0.0369713 0.115868 -0.00121668 0.288352 -0.957524 
-0.026341 -0.0759552 0.104132 -0.00121668 0.288352 -0.957524 
-0.00347097 -0.0234023 0.119953 -0.00121668 0.288352 -0.957524 
-0.0212998 -0.0706213 0.105738 -0.00121668 0.288352 -0.957524 
-0.0360535 -0.0651622 0.107381 -0.00121668 0.288352 -0.957524 
-0.00847057 -0.0246837 0.119567 -0.00121668 0.288352 -0.957524 
-0.0167852 -0.080155 0.102868 -0.00121668 0.288352 -0.957524 
-0.000635434 -0.0787658 0.103286 -0.00121668 0.288352 -0.957524 
-0.00258619 -0.00524288 0.125419 -0.00121668 0.288352 -0.957524 
-0.00713651 -0.0629713 0.108041 -0.00121668 0.288352 -0.957524 
-0.0201115 -0.0503403 0.111843 -0.00121668 0.288352 -0.957524 
-0.0327663 -0.05909 0.109209 -0.00121668 0.288352 -0.957524 
-0.00760099 -0.0520837 0.111318 -0.00121668 0.288352 -0.957524 
-0.043252 -0.0220349 0.120364 -0.00121668 0.288352 -0.957524 
-0.0484312 -0.0528007 0.111103 -0.00121668 0.288352 -0.957524 
-0.0301886 -0.031361 0.117557 -0.00121668 0.288352 -0.957524 
-0.0383404 -0.0234452 0.11994 -0.00121668 0.288352 -0.957524 
-0.0274979 -0.0372837 0.115774 -0.00121668 0.288352 -0.957524 
-0.0362516 -0.0324077 0.117242 -0.00121668 0.288352 -0.957524 
-0.0318454 -0.0469108 0.112876 -0.00121668 0.288352 -0.957524 
-0.0498859 -0.0446325 0.113562 -0.00121668 0.288352 -0.957524 
-0.0284928 -0.0318293 0.117416 -0.00121668 0.288352 -0.957524 
-0.0460033 -0.0345967 0.116583 -0.00121668 0.288352 -0.957524 
-0.0575342 -0.0658315 0.154116 -0.918306 -0.335617 -0.209939 
-0.0623857 -0.0644654 0.173071 -0.918306 -0.335617 -0.209939 
-0.0522788 -0.086994 0.164887 -0.918306 -0.335617 -0.209939 
-0.0575211 -0.0727314 0.165033 -0.918306 -0.335617 -0.209939 
-0.0637607 -0.0714712 0.190201 -0.918306 -0.335617 -0.209939 
-0.0507601 -0.0702215 0.131597 -0.918306 -0.335617 -0.209939 
-0.0519325 -0.096919 0.179165 -0.918306 -0.335617 -0.209939 
-0.0606812 -0.059444 0.157661 -0.918306 -0.335617 -0.209939 
-0.0697009 -0.0498325 0.181655 -0.918306 -0.335617 -0.209939 
-0.0553019 -0.0725712 0.155114 -0.918306 -0.335617 -0.209939 
-0.0590741 -0.0765225 0.177825 -0.918306 -0.335617 -0.209939 
-0.0532014 -0.0657598 0.135132 -0.918306 -0.335617 -0.209939 
-0.0474053 -0.0805974 0.13349 -0.918306 -0.335617 -0.209939 
-0.049397 -0.0901327 0.157329 -0.918306 -0.335617 -0.209939 
-0.0633937 -0.0732187 0.191383 -0.918306 -0.335617 -0.209939 
-0.0573362 -0.089763 0.191316 -0.918306 -0.335617 -0.209939 
-0.0632339 -0.0661505 0.179445 -0.918306 -0.335617 -0.209939 
-0.0695322 -0.0482602 0.17842 -0.918306 -0.335617 -0.209939 
-0.0485901 -0.0637828 0.111907 -0.918306 -0.335617 -0.209939 
-0.0554746 -0.0550362 0.127978 -0.918306 -0.335617 -0.209939 
-0.0521286 -0.0629257 0.125954 -0.918306 -0.335617 -0.209939 
-0.0579771 -0.0539169 0.137096 -0.918306 -0.335617 -0.209939 
-0.0647354 -0.0454356 0.153039 -0.918306 -0.335617 -0.209939 
-0.0457631 -0.071331 0.1116 -0.918306 -0.335617 -0.209939 
-0.0461748 -0.0677391 0.107681 -0.918306 -0.335617 -0.209939 
-0.0613805 -0.0369291 0.124901 -0.918306 -0.335617 -0.209939 
0.0713213 -0.0203813 0.189075 0.957409 0.217048 -0.190416 
0.0662964 -0.00330488 0.183231 0.957409 0.217048 -0.190416 
0.0725246 -0.0307737 0.183309 0.957409 0.217048 -0.190416 
0.0654572 -0.00683552 0.174998 0.957409 0.217048 -0.190416 
0.0691885 0.00455436 0.206705 0.957409 0.217048 -0.190416 
0.0705951 -0.00451597 0.203464 0.957409 0.217048 -0.190416 
0.0658892 0.0165902 0.203804 0.957409 0.217048 -0.190416 
0.0587473 0.0181655 0.169692 0.957409 0.217048 -0.190416 
0.0628724 0.0117185 0.183099 0.957409 0.217048 -0.190416 
0.0658998 -0.0297133 0.151309 0.957409 0.217048 -0.190416 
0.0682073 -0.0183796 0.175705 0.957409 0.217048 -0.190416 
0.0737036 -0.0363777 0.182868 0.957409 0.217048 -0.190416 
0.0614034 0.00248902 0.165239 0.957409 0.217048 -0.190416 
0.0638413 -0.0119863 0.161066 0.957409 0.217048 -0.190416 
0.0594866 -0.0119701 0.139263 0.957409 0.217048 -0.190416 
0.0606945 -0.0230939 0.132721 0.957409 0.217048 -0.190416 
0.0597871 0.000876104 0.155314 0.957409 0.217048 -0.190416 
0.0693476 -0.0239106 0.175156 0.957409 0.217048 -0.190416 
0.0633089 -0.0246891 0.144015 0.957409 0.217048 -0.190416 
0.0632149 -0.017772 0.151376 0.957409 0.217048 -0.190416 
0.0642861 -0.0273982 0.145845 0.957409 0.217048 -0.190416 
-0.0302281 -0.00913185 0.257837 -0.408246 -0.049525 0.911527 
-0.0444267 -0.0211392 0.250815 -0.408246 -0.049525 0.911527 
-0.020795 0.00986428 0.263113 -0.408246 -0.049525 0.911527 
-0.0399426 -0.0479382 0.251337 -0.408246 -0.049525 0.911527 
-0.0188316 -0.0170562 0.262499 -0.408246 -0.049525 0.911527 
-0.0316452 -0.0133333 0.25697 -0.408246 -0.049525 0.911527 
-0.042467 -0.0705941 0.248951 -0.408246 -0.049525 0.911527 
-0.0432357 -0.0496217 0.249769 -0.408246 -0.049525 0.911527 
-0.0382404 -0.0226612 0.2535 -0.408246 -0.049525 0.911527 
-0.042678 0.00230639 0.252898 -0.408246 -0.049525 0.911527 
-0.040194 -0.0146578 0.253069 -0.408246 -0.049525 0.911527 
-0.0470845 -0.0706151 0.246882 -0.408246 -0.049525 0.911527 
-0.027472 -0.038034 0.257468 -0.408246 -0.049525 0.911527 
-0.0334774 -0.0192913 0.255819 -0.408246 -0.049525 0.911527 
-0.047144 -0.017219 0.249816 -0.408246 -0.049525 0.911527 
-0.0285296 -0.0329554 0.257276 -0.408246 -0.049525 0.911527 
-0.0455453 -0.0233419 0.250192 -0.408246 -0.049525 0.911527 
0.00777217 -0.00440304 0.268154 0.399192 -0.0169039 0.916712 
0.0221043 -0.0349369 0.261323 0.399192 -0.0169039 0.916712 
0.021568 -0.0143301 0.261959 0.399192 -0.0169039 0.916712 
0.00549476 -0.0289247 0.268665 0.399192 -0.0169039 0.916712 
0.0258435 0.0167487 0.260708 0.399192 -0.0169039 0.916712 
0.0121968 -0.0114846 0.266091 0.399192 -0.0169039 0.916712 
0.0315369 0.0155164 0.258207 0.399192 -0.0169039 0.916712 
0.0340231 0.0102877 0.257024 0.399192 -0.0169039 0.916712 
0.0175233 -0.0307538 0.263397 0.399192 -0.0169039 0.916712 
0.0280035 -0.00299297 0.259382 0.399192 -0.0169039 0.916712 
0.0144914 -0.0359027 0.264615 0.399192 -0.0169039 0.916712 
0.00802328 -0.0187197 0.267765 0.399192 -0.0169039 0.916712 
0.000107238 0.0161995 0.271891 0.399192 -0.0169039 0.916712 
0.002844 -0.00353689 0.270315 0.399192 -0.0169039 0.916712 
