ply
format ascii 1.0
comment Created by CloudCompare v2.10.3 (Zephyrus)
comment Created 28.11.21 12:39
obj_info Generated by CloudCompare!
element vertex 999
property float x
property float y
property float z
property float nx
property float ny
property float nz
end_header
0.0507414 -0.075775 0.195107 0 0 0 
0.042007 -0.0785861 0.198923 0 0 0 
0.0313088 -0.0849358 0.190103 0 0 0 
0.047359 -0.0791946 0.185762 0 0 0 
0.0440934 -0.078207 0.196654 0 0 0 
0.0485662 -0.0773966 0.191779 0 0 0 
0.0261973 -0.0846135 0.201472 0 0 0 
0.0267423 -0.083556 0.20533 0 0 0 
0.0387519 -0.079326 0.201775 0 0 0 
0.0447461 -0.0750107 0.210236 0 0 0 
0.0470408 -0.0721574 0.219054 0 0 0 
0.0393449 -0.0760189 0.215987 0 0 0 
-0.0464453 -0.0376346 0.238307 0 0 0 
-0.0481494 -0.0275786 0.18969 0 0 0 
-0.055719 -0.0215563 0.144798 0 0 0 
-0.0494559 -0.0335888 0.213146 0 0 0 
-0.0477172 -0.0288757 0.196472 0 0 0 
-0.0579086 -0.0184428 0.125742 0 0 0 
-0.0555228 -0.0267957 0.168463 0 0 0 
-0.0590913 -0.0358882 0.200113 0 0 0 
-0.0680145 -0.0389551 0.192193 0 0 0 
-0.057679 -0.0366566 0.206917 0 0 0 
-0.0625339 -0.0388293 0.204839 0 0 0 
-0.0596493 -0.025027 0.150694 0 0 0 
-0.0559013 -0.03909 0.22197 0 0 0 
-0.0625441 -0.0388329 0.20483 0 0 0 
0.019498 -0.0319499 0.222037 0 0 0 
0.0481026 -0.0196003 0.143884 0 0 0 
0.0392352 -0.023642 0.169256 0 0 0 
0.0358435 -0.0360265 0.23712 0 0 0 
0.034062 -0.0272569 0.190803 0 0 0 
0.0272263 -0.0353738 0.237198 0 0 0 
0.0440196 -0.0255832 0.177684 0 0 0 
0.0240956 -0.0286442 0.202388 0 0 0 
0.0470709 -0.0186324 0.139119 0 0 0 
0.0437345 -0.0206838 0.151512 0 0 0 
0.0154061 -0.032512 0.226753 0 0 0 
0.0420077 -0.0225149 0.162056 0 0 0 
0.023292 -0.0280084 0.19931 0 0 0 
0.0345389 -0.0338595 0.226034 0 0 0 
0.0210534 -0.0324445 0.224044 0 0 0 
0.0516268 -0.0237716 0.164802 0 0 0 
0.0328917 -0.0309628 0.211175 0 0 0 
0.0455984 -0.0296028 0.198598 0 0 0 
0.0147031 -0.0348818 0.239761 0 0 0 
0.025335 -0.0281455 0.199197 0 0 0 
-0.0317412 -0.0734051 0.10544 0 0 0 
-0.0251312 -0.0861015 0.142413 0 0 0 
-0.0341807 -0.0736009 0.108721 0 0 0 
-0.0215769 -0.0896797 0.151028 0 0 0 
-0.0319988 -0.0805317 0.130426 0 0 0 
-0.0208872 -0.086725 0.140047 0 0 0 
-0.012258 -0.0860399 0.128466 0 0 0 
-0.0365336 -0.0754658 0.117698 0 0 0 
-0.0136316 -0.0878638 0.136255 0 0 0 
-0.0277563 -0.0780103 0.117157 0 0 0 
-0.0242398 -0.0917153 0.160928 0 0 0 
-0.0450422 -0.0704656 0.109437 0 0 0 
-0.00763727 -0.0836911 0.115392 0 0 0 
-0.0226901 -0.0924603 0.161858 0 0 0 
-0.0209538 -0.0788589 0.231155 0 0 0 
-0.000284946 -0.0883725 0.215421 0 0 0 
-0.00225379 -0.0940706 0.200502 0 0 0 
-0.022741 -0.082034 0.222577 0 0 0 
-0.0155093 -0.0852085 0.217455 0 0 0 
-0.00618825 -0.0925277 0.20283 0 0 0 
-0.0268705 -0.0782968 0.230286 0 0 0 
0.0499296 -0.0759459 0.165466 0 0 0 
0.0487758 -0.0706069 0.141211 0 0 0 
0.0548874 -0.0585816 0.112327 0 0 0 
0.0471037 -0.0652195 0.115235 0 0 0 
0.0518193 -0.0632745 0.12158 0 0 0 
0.0487792 -0.0693469 0.136302 0 0 0 
0.0491246 -0.0717737 0.146797 0 0 0 
0.0532674 -0.0617029 0.119724 0 0 0 
0.0398836 -0.0726812 0.123026 0 0 0 
0.0493035 -0.0722041 0.149006 0 0 0 
0.0551846 -0.0630426 0.22032 0 0 0 
0.0576509 -0.0651498 0.214742 0 0 0 
0.0531658 -0.0536013 0.223081 0 0 0 
0.0618969 -0.0434746 0.207184 0 0 0 
0.059275 -0.0399953 0.212442 0 0 0 
0.0586592 -0.0441405 0.213104 0 0 0 
0.060686 -0.0603496 0.207478 0 0 0 
0.0648813 -0.0504446 0.200852 0 0 0 
-0.0454799 -0.0623862 0.231721 0 0 0 
-0.0553082 -0.0623008 0.219317 0 0 0 
-0.0512338 -0.0588486 0.227072 0 0 0 
-0.0528015 -0.0500697 0.23166 0 0 0 
-0.0612122 -0.0660922 0.208856 0 0 0 
-0.0489501 -0.0709165 0.220062 0 0 0 
-0.0442165 -0.0640155 0.231976 0 0 0 
-0.0614524 -0.0577943 0.134667 0 0 0 
-0.0590593 -0.0550604 0.108065 0 0 0 
-0.0534175 -0.0710033 0.140024 0 0 0 
-0.0636162 -0.0505021 0.11743 0 0 0 
-0.0597799 -0.0620404 0.142111 0 0 0 
-0.0554929 -0.0605271 0.108767 0 0 0 
-0.0558353 -0.076982 0.180502 0 0 0 
-0.0598617 -0.0620041 0.142471 0 0 0 
-0.0611201 -0.0601755 0.142648 0 0 0 
0.0626717 -0.0235011 0.115448 0 0 0 
0.0634348 -0.0287642 0.158692 0 0 0 
0.0634868 -0.0288651 0.158916 0 0 0 
0.0652767 -0.0316384 0.159246 0 0 0 
0.0629853 -0.0270947 0.14833 0 0 0 
0.0674671 -0.0373966 0.184622 0 0 0 
0.0640458 -0.0291227 0.152591 0 0 0 
-0.0379234 -0.0170252 0.114085 0 0 0 
0.0112377 -0.0254517 0.1122 0 0 0 
-0.0395676 -0.0187569 0.113801 0 0 0 
0.00878091 -0.0169809 0.113679 0 0 0 
-0.0227164 -0.0207982 0.113301 0 0 0 
0.0059695 -0.0229619 0.112675 0 0 0 
0.0244206 -0.0179983 0.113365 0 0 0 
0.00302908 -0.0220068 0.112865 0 0 0 
0.028226 -0.027786 0.111648 0 0 0 
0.0566571 -0.0274226 0.111459 0 0 0 
0.0398438 -0.0373355 0.109902 0 0 0 
0.00475333 -0.0318389 0.111158 0 0 0 
0.0363932 -0.0394461 0.10957 0 0 0 
-0.00602677 -0.0325115 0.111138 0 0 0 
0.0496116 -0.0336497 0.11045 0 0 0 
0.0130924 -0.0346899 0.110594 0 0 0 
0.0623209 -0.0437148 0.108606 0 0 0 
0.0583841 -0.0423746 0.108872 0 0 0 
0.0487636 -0.0436726 0.108733 0 0 0 
0.0543037 -0.0505646 0.107499 0 0 0 
-0.0321037 -0.0260379 0.112483 0 0 0 
-0.0204254 -0.0619873 0.106194 0 0 0 
-0.0123092 -0.0691625 0.104888 0 0 0 
0.0358192 -0.0590827 0.106197 0 0 0 
0.0135341 -0.0412726 0.109458 0 0 0 
-0.0550875 -0.0259302 0.112704 0 0 0 
0.0197627 -0.066491 0.105064 0 0 0 
-0.0368755 -0.0421437 0.109754 0 0 0 
0.00182496 -0.0770667 0.103403 0 0 0 
-0.00781181 -0.061594 0.10615 0 0 0 
-0.0424389 -0.0298309 0.111921 0 0 0 
0.0136243 -0.0492678 0.108081 0 0 0 
-0.00584583 -0.0654523 0.105469 0 0 0 
-0.0190927 -0.0360943 0.110637 0 0 0 
-0.021134 -0.0567094 0.107108 0 0 0 
0.0109768 -0.0648687 0.105421 0 0 0 
0.0252609 -0.0483654 0.108134 0 0 0 
0.00454079 -0.0748239 0.103765 0 0 0 
-0.00130207 -0.0518251 0.107773 0 0 0 
0.0127216 -0.0657545 0.105253 0 0 0 
-0.0232948 -0.0422068 0.109623 0 0 0 
-0.0363459 -0.036365 0.110743 0 0 0 
-0.0467742 -0.0402554 0.110166 0 0 0 
-0.0573111 -0.0265711 0.112614 0 0 0 
-0.0440151 -0.0475577 0.108885 0 0 0 
-0.0440854 -0.0507935 0.108329 0 0 0 
-0.01684 -0.0770342 0.103573 0 0 0 
-0.0523038 -0.0513631 0.108304 0 0 0 
-0.0321349 -0.0602154 0.106602 0 0 0 
-0.0595758 -0.0286541 0.112275 0 0 0 
-0.0615965 -0.0263982 0.112681 0 0 0 
-0.0521165 -0.0618699 0.106495 0 0 0 
0.0208664 -0.0600676 0.249894 0 0 0 
-0.0150308 -0.0578029 0.253345 0 0 0 
-0.0106677 -0.0577573 0.253099 0 0 0 
0.00106317 -0.0590725 0.251657 0 0 0 
0.00494877 -0.0751333 0.24265 0 0 0 
0.022271 -0.0698147 0.244497 0 0 0 
0.0253817 -0.0696522 0.244395 0 0 0 
0.00249444 -0.0951187 0.189309 0 0 0 
0.0233749 -0.0828835 0.125289 0 0 0 
0.00213557 -0.0904452 0.155422 0 0 0 
0.0102331 -0.083722 0.116422 0 0 0 
0.0158142 -0.0827589 0.115838 0 0 0 
0.0162614 -0.0848044 0.130999 0 0 0 
0.00623059 -0.0908375 0.162867 0 0 0 
0.00813596 -0.0879669 0.144459 0 0 0 
0.00641814 -0.0845954 0.118361 0 0 0 
-0.00980717 -0.0346952 0.241137 0 0 0 
-0.0264836 -0.0345219 0.238641 0 0 0 
-0.0217058 -0.031477 0.218936 0 0 0 
-0.035986 -0.0332156 0.229251 0 0 0 
-0.0348359 -0.0283855 0.19747 0 0 0 
-0.0423746 -0.0242398 0.169503 0 0 0 
-0.0439512 -0.0277935 0.192825 0 0 0 
-0.0444788 -0.0251707 0.175475 0 0 0 
-0.0476746 -0.0228543 0.159929 0 0 0 
-0.0455438 -0.025563 0.177977 0 0 0 
-0.0454037 -0.029412 0.203388 0 0 0 
-0.0254243 -0.0327213 0.226846 0 0 0 
-0.0233442 -0.0308891 0.214924 0 0 0 
-0.0409891 -0.034197 0.235321 0 0 0 
-0.0241407 -0.0347279 0.240191 0 0 0 
-0.0205202 -0.030015 0.209384 0 0 0 
-0.0458555 -0.0244708 0.170744 0 0 0 
-0.0382635 -0.0287305 0.199469 0 0 0 
-0.00446244 -0.0260508 0.184381 0 0 0 
-0.00324985 -0.0264628 0.187198 0 0 0 
0.00547588 -0.0306289 0.215413 0 0 0 
0.0206182 -0.0173998 0.129053 0 0 0 
0.0396224 -0.0158975 0.120551 0 0 0 
0.0290204 -0.0162488 0.122074 0 0 0 
-0.0147684 -0.0172511 0.125398 0 0 0 
-0.00110048 -0.0356503 0.24813 0 0 0 
0.00253733 -0.0187618 0.136697 0 0 0 
0.015856 -0.0300295 0.212232 0 0 0 
-0.0161781 -0.0190862 0.137429 0 0 0 
0.0234579 -0.024745 0.177852 0 0 0 
0.00916938 -0.0308591 0.217214 0 0 0 
0.0106165 -0.0269938 0.191757 0 0 0 
-0.0142229 -0.0169105 0.123186 0 0 0 
-0.00994956 -0.0302589 0.211801 0 0 0 
0.00561401 -0.0311421 0.218818 0 0 0 
0.0103603 -0.0296699 0.209438 0 0 0 
-0.00731425 -0.0318366 0.222436 0 0 0 
-0.0172967 -0.0303208 0.211655 0 0 0 
-0.0175096 -0.0296339 0.207096 0 0 0 
0.00757034 -0.0249939 0.178299 0 0 0 
-0.0307791 -0.0254818 0.178631 0 0 0 
-0.0131974 -0.0258788 0.182584 0 0 0 
0.0154091 -0.0179999 0.132629 0 0 0 
-0.00694901 -0.0233028 0.166017 0 0 0 
0.0331484 -0.0203446 0.149477 0 0 0 
0.0127055 -0.0153067 0.114611 0 0 0 
-0.0186575 -0.026987 0.189502 0 0 0 
0.0304795 -0.0244421 0.176379 0 0 0 
-0.0437923 -0.0172306 0.123071 0 0 0 
0.0306615 -0.0190976 0.141041 0 0 0 
-0.00698319 -0.0242034 0.171971 0 0 0 
0.0297736 -0.0241556 0.17443 0 0 0 
0.00291164 -0.0237991 0.170044 0 0 0 
-0.0250818 -0.0181551 0.130599 0 0 0 
0.0112087 -0.0269968 0.191822 0 0 0 
-0.0429915 -0.0162169 0.116427 0 0 0 
0.00738756 -0.0179522 0.131708 0 0 0 
-0.00761422 -0.0322006 0.224821 0 0 0 
0.010756 -0.0216513 0.15643 0 0 0 
0.0115452 -0.0324063 0.227627 0 0 0 
-0.0301547 -0.0222036 0.156994 0 0 0 
0.0112676 -0.0240718 0.172479 0 0 0 
-0.0300169 -0.0221232 0.156473 0 0 0 
0.0260528 -0.0233806 0.169023 0 0 0 
0.00560306 -0.0281293 0.198889 0 0 0 
-0.0262177 -0.025561 0.179499 0 0 0 
0.0189628 -0.0195759 0.143322 0 0 0 
0.0207192 -0.024438 0.175614 0 0 0 
-0.0193953 -0.0299988 0.209367 0 0 0 
-0.0259354 -0.0248771 0.174997 0 0 0 
0.027665 -0.025527 0.183342 0 0 0 
-0.0172504 -0.0261488 0.184063 0 0 0 
-0.0266945 -0.0256723 0.180199 0 0 0 
-0.0058484 -0.0308956 0.216322 0 0 0 
0.0219698 -0.0178207 0.131939 0 0 0 
-0.0370951 -0.0217719 0.153615 0 0 0 
0.00355129 -0.020429 0.147801 0 0 0 
0.00396102 -0.0283392 0.200154 0 0 0 
-0.0556407 -0.0168212 0.119469 0 0 0 
-0.00559399 -0.0183105 0.133098 0 0 0 
-0.0395125 -0.0479365 0.24264 0 0 0 
-0.0363999 -0.0487569 0.244038 0 0 0 
-0.0267053 -0.053996 0.248739 0 0 0 
-0.0309061 -0.0403235 0.245223 0 0 0 
-0.0161992 -0.043724 0.251747 0 0 0 
-0.0139394 -0.0549633 0.254145 0 0 0 
-0.0194558 -0.0512933 0.251386 0 0 0 
-0.00572539 -0.0437421 0.256083 0 0 0 
-0.0102205 -0.0371847 0.253381 0 0 0 
0.0129255 -0.0424396 0.252937 0 0 0 
0.0184294 -0.0402696 0.250384 0 0 0 
0.019807 -0.0443634 0.25033 0 0 0 
0.0356376 -0.0451648 0.243876 0 0 0 
0.0375232 -0.0462412 0.243231 0 0 0 
0.0420125 -0.0400081 0.240586 0 0 0 
0.0643654 -0.0581342 0.166351 0 0 0 
0.0637681 -0.0511117 0.133743 0 0 0 
0.0662824 -0.0426459 0.124494 0 0 0 
0.0639553 -0.0662096 0.193653 0 0 0 
0.0633177 -0.0511427 0.129676 0 0 0 
0.0638179 -0.0542188 0.146177 0 0 0 
0.0637572 -0.0584796 0.162029 0 0 0 
0.0627208 -0.0505975 0.122028 0 0 0 
0.0674562 -0.0444781 0.166816 0 0 0 
0.0679504 -0.0409552 0.155618 0 0 0 
0.0652245 -0.0582928 0.181904 0 0 0 
0.0668847 -0.0479324 0.16927 0 0 0 
0.0683901 -0.0376208 0.142267 0 0 0 
0.0657324 -0.0555688 0.185589 0 0 0 
0.0670452 -0.0463966 0.158995 0 0 0 
0.0654405 -0.0579635 0.197516 0 0 0 
0.06797 -0.0409296 0.157109 0 0 0 
-0.0665529 -0.035813 0.130502 0 0 0 
-0.0665862 -0.0308758 0.156597 0 0 0 
-0.0665112 -0.032387 0.146987 0 0 0 
-0.0644712 -0.027123 0.122861 0 0 0 
-0.0655457 -0.0345717 0.111644 0 0 0 
-0.0672094 -0.0391561 0.129829 0 0 0 
-0.0684058 -0.0389747 0.160701 0 0 0 
-0.0641661 -0.0256582 0.122719 0 0 0 
-0.0683706 -0.0437462 0.135408 0 0 0 
-0.0693608 -0.0454707 0.151368 0 0 0 
-0.026389 -0.0862292 0.204451 0 0 0 
-0.00279332 -0.0946211 0.198747 0 0 0 
-0.0107804 -0.0918265 0.200479 0 0 0 
-0.0173716 -0.0941832 0.181776 0 0 0 
-0.0206802 -0.0874899 0.206394 0 0 0 
-0.0234314 -0.09111 0.187204 0 0 0 
-0.0162041 -0.0887996 0.20653 0 0 0 
-0.0438015 -0.0839042 0.183471 0 0 0 
-0.0348577 -0.0886152 0.178964 0 0 0 
-0.0441842 -0.0823015 0.190491 0 0 0 
-0.0520104 -0.0784868 0.192935 0 0 0 
-0.0473293 -0.0802569 0.193966 0 0 0 
-0.0373266 -0.0854479 0.189305 0 0 0 
-0.0316826 -0.0908829 0.174463 0 0 0 
0.00953238 -0.0750212 0.103762 0 0 0 
0.0339237 -0.0656168 0.106425 0 0 0 
0.0295752 -0.0732461 0.112162 0 0 0 
0.0379542 -0.0718634 0.115005 0 0 0 
0.0175583 -0.0811944 0.114309 0 0 0 
0.0464096 -0.0647134 0.111869 0 0 0 
0.0668924 -0.0384957 0.192669 0 0 0 
0.0541505 -0.0369095 0.216522 0 0 0 
0.0554897 -0.0245796 0.160114 0 0 0 
0.0583945 -0.0328396 0.188744 0 0 0 
0.0568251 -0.0334925 0.195341 0 0 0 
0.0621993 -0.0343456 0.186075 0 0 0 
0.0587057 -0.0278298 0.166386 0 0 0 
0.0626379 -0.0298598 0.16567 0 0 0 
0.0551065 -0.020767 0.144593 0 0 0 
0.0626636 -0.0297705 0.165222 0 0 0 
-0.054749 -0.0404194 0.226159 0 0 0 
-0.0586111 -0.053304 0.218048 0 0 0 
-0.0550943 -0.0466133 0.225866 0 0 0 
-0.0594609 -0.0522728 0.216005 0 0 0 
-0.0599909 -0.0497589 0.214623 0 0 0 
-0.0656017 -0.0536821 0.201759 0 0 0 
-0.0540387 -0.0484773 0.228843 0 0 0 
0.0374419 -0.0565326 0.241094 0 0 0 
0.0464143 -0.0554207 0.233922 0 0 0 
0.0403901 -0.0604239 0.237819 0 0 0 
0.0418155 -0.0418363 0.240652 0 0 0 
0.0295335 -0.0618347 0.246282 0 0 0 
-0.0454441 -0.0829632 0.177093 0 0 0 
-0.0415926 -0.0847039 0.173475 0 0 0 
-0.0395001 -0.0849061 0.167195 0 0 0 
-0.0329257 -0.0893562 0.169601 0 0 0 
-0.0380128 -0.0825441 0.148189 0 0 0 
-0.0372807 -0.085114 0.160496 0 0 0 
-0.0493184 -0.0793656 0.170015 0 0 0 
-0.0512461 -0.0722141 0.135379 0 0 0 
-0.0356226 -0.085057 0.154259 0 0 0 
-0.0440896 -0.0787438 0.147781 0 0 0 
-0.0464801 -0.0716634 0.115205 0 0 0 
0.025384 -0.0806161 0.216383 0 0 0 
0.0222058 -0.0754774 0.232576 0 0 0 
0.0334599 -0.069539 0.23857 0 0 0 
0.0402116 -0.0691478 0.233844 0 0 0 
0.0479207 -0.0693123 0.226844 0 0 0 
0.0210462 -0.0820779 0.216243 0 0 0 
0.0417898 -0.0711624 0.227213 0 0 0 
0.0110588 -0.0804794 0.228375 0 0 0 
0.0105613 -0.0834143 0.221351 0 0 0 
0.0168387 -0.0732245 0.242342 0 0 0 
0.00398517 -0.0832593 0.226649 0 0 0 
0.00225373 -0.086889 0.218795 0 0 0 
-0.00784391 -0.0725089 0.24416 0 0 0 
-0.0245022 -0.067189 0.244125 0 0 0 
-0.020766 -0.0759753 0.23599 0 0 0 
-0.0114837 -0.0759384 0.239228 0 0 0 
-0.0284027 -0.0663907 0.243635 0 0 0 
0.0309887 -0.0836131 0.155588 0 0 0 
0.0414231 -0.0825547 0.178133 0 0 0 
0.019966 -0.0887795 0.176074 0 0 0 
0.0429532 -0.0811847 0.168145 0 0 0 
0.0406166 -0.0826643 0.176694 0 0 0 
0.0226475 -0.0864996 0.159895 0 0 0 
0.00305682 -0.0953132 0.192271 0 0 0 
0.0221654 -0.0880537 0.175324 0 0 0 
0.0101573 -0.0924691 0.184369 0 0 0 
0.0143055 -0.0899852 0.170755 0 0 0 
0.0241673 -0.0878683 0.179844 0 0 0 
0.0131476 -0.0899972 0.167099 0 0 0 
-0.0670395 -0.0478806 0.135437 0 0 0 
-0.0672808 -0.045659 0.124781 0 0 0 
-0.0690406 -0.0479407 0.161468 0 0 0 
-0.067024 -0.0484408 0.138705 0 0 0 
-0.0657803 -0.0549696 0.163167 0 0 0 
-0.0664598 -0.0578322 0.189597 0 0 0 
-0.0614255 -0.0662092 0.178941 0 0 0 
-0.0582129 -0.071813 0.174357 0 0 0 
-0.0655751 -0.0485296 0.121422 0 0 0 
-0.0576612 -0.0747514 0.185574 0 0 0 
-0.061624 -0.0630422 0.162086 0 0 0 
-0.0603441 -0.0708456 0.194107 0 0 0 
-0.0627712 -0.058912 0.150787 0 0 0 
-0.00525087 -0.0893826 0.143656 0 0 0 
0.00015129 -0.0890311 0.143326 0 0 0 
-0.0034766 -0.0896784 0.146505 0 0 0 
-0.00586376 -0.0931923 0.170811 0 0 0 
-0.00415423 -0.093681 0.175022 0 0 0 
-0.00888539 -0.0945663 0.179465 0 0 0 
-0.00789771 -0.0924195 0.164424 0 0 0 
-0.00782088 -0.0916283 0.158764 0 0 0 
0.0615429 -0.0698413 0.194391 0 0 0 
0.0589411 -0.0713205 0.188364 0 0 0 
0.056404 -0.0653441 0.146727 0 0 0 
0.0526631 -0.0744572 0.171737 0 0 0 
0.0622047 -0.0686516 0.192003 0 0 0 
0.0551976 -0.06579 0.142776 0 0 0 
0.0581924 -0.0611321 0.135468 0 0 0 
-0.0446832 -0.0753176 0.219029 0 0 0 
-0.0605118 -0.0698861 0.200512 0 0 0 
-0.0475256 -0.0730134 0.219521 0 0 0 
0.0662433 0.00921208 -0.0015 0 0 0 
0.0516622 0.0368498 -0.0015 0 0 0 
0.06115 0.0175946 -0.0015 0 0 0 
0.0420328 0.0533416 -0.0015 0 0 0 
0.0403169 0.0327251 -0.0015 0 0 0 
0.043808 0.0241864 -0.0015 0 0 0 
0.055315 0.00529221 -0.0015 0 0 0 
0.0517404 -0.0316119 -0.0015 0 0 0 
0.0563346 0.00509237 -0.0015 0 0 0 
0.0440375 0.00153141 -0.0015 0 0 0 
0.0394742 -0.00455406 -0.0015 0 0 0 
0.0600166 -0.0105393 -0.0015 0 0 0 
0.0451477 -0.00958758 -0.0015 0 0 0 
0.044896 -0.00658022 -0.0015 0 0 0 
0.0629582 0.0118433 -0.0015 0 0 0 
0.0184537 -0.042502 -0.0015 0 0 0 
0.0192667 -0.0463122 -0.0015 0 0 0 
0.00647961 -0.0317096 -0.0015 0 0 0 
0.015295 -0.0283659 -0.0015 0 0 0 
0.0373003 0.0165449 -0.0015 0 0 0 
0.0122232 -0.0479526 -0.0015 0 0 0 
0.0234437 -0.012271 -0.0015 0 0 0 
0.0311543 0.0260127 -0.0015 0 0 0 
0.0328296 0.00671274 -0.0015 0 0 0 
0.0231845 -0.03882 -0.0015 0 0 0 
0.0375617 -0.00702775 -0.0015 0 0 0 
-0.0184413 -0.0513465 -0.0015 0 0 0 
0.0200394 0.00412508 -0.0015 0 0 0 
0.0288168 0.0094684 -0.0015 0 0 0 
0.00226629 -0.0590247 -0.0015 0 0 0 
0.0384394 0.027528 -0.0015 0 0 0 
0.0176904 -0.000774428 -0.0015 0 0 0 
0.0161273 -0.0398947 -0.0015 0 0 0 
0.0221971 0.00568432 -0.0015 0 0 0 
0.00989004 0.00217694 -0.0015 0 0 0 
0.0264577 -0.00383848 -0.0015 0 0 0 
0.00143177 -0.0595718 -0.0015 0 0 0 
0.0380643 0.0426125 -0.0015 0 0 0 
0.0373719 0.0197595 -0.0015 0 0 0 
-7.45058e-08 -0.0529307 -0.0015 0 0 0 
0.0267448 -0.013444 -0.0015 0 0 0 
0.00980509 -0.0579598 -0.0015 0 0 0 
-0.0135947 -0.0628977 -0.0015 0 0 0 
-0.015252 -0.0462206 -0.0015 0 0 0 
-0.00101405 -0.00752849 -0.0015 0 0 0 
-0.037139 -0.0213058 -0.0015 0 0 0 
-0.0029151 0.00683783 -0.0015 0 0 0 
-0.00624453 -0.00690327 -0.0015 0 0 0 
-0.0231764 -0.0314051 -0.0015 0 0 0 
-0.018241 -0.0265643 -0.0015 0 0 0 
-0.0240913 -0.00409918 -0.0015 0 0 0 
-0.0218548 -0.0454486 -0.0015 0 0 0 
-0.000372278 0.00240259 -0.0015 0 0 0 
-0.0163965 -0.038243 -0.0015 0 0 0 
0.0235245 0.03338 -0.0015 0 0 0 
-0.0149631 -0.0411543 -0.0015 0 0 0 
-0.019073 0.00108541 -0.0015 0 0 0 
-0.0113749 -0.0207042 -0.0015 0 0 0 
-0.0271159 -0.0627486 -0.0015 0 0 0 
0.0187393 0.0390984 -0.0015 0 0 0 
-0.0215354 -0.0538672 -0.0015 0 0 0 
-0.000925854 0.0190905 -0.0015 0 0 0 
0.0105918 0.013348 -0.0015 0 0 0 
-0.0378474 -0.0432103 -0.0015 0 0 0 
-0.0110294 -0.0317739 -0.0015 0 0 0 
-0.0093393 -0.00320266 -0.0015 0 0 0 
-0.0087033 0.0133957 -0.0015 0 0 0 
-0.0599517 -0.012715 -0.0015 0 0 0 
-0.00440136 0.0321275 -0.0015 0 0 0 
0.0194055 0.0422931 -0.0015 0 0 0 
-0.0440761 0.0101156 -0.0015 0 0 0 
-0.00521095 0.0212527 -0.0015 0 0 0 
-0.0565152 -0.0244753 -0.0015 0 0 0 
-0.0136435 0.0185635 -0.0015 0 0 0 
-0.028225 -0.00681075 -0.0015 0 0 0 
-0.0540902 0.00361624 -0.0015 0 0 0 
-0.0609489 -0.0151086 -0.0015 0 0 0 
-0.0555696 -0.0120259 -0.0015 0 0 0 
-0.0455361 0.013753 -0.0015 0 0 0 
-0.0315645 0.0149877 -0.0015 0 0 0 
-0.0307586 0.021433 -0.0015 0 0 0 
-0.0172383 0.00990057 -0.0015 0 0 0 
-0.0097536 0.0143347 -0.0015 0 0 0 
-0.0231593 0.000277274 -0.0015 0 0 0 
-0.00849844 0.0381537 -0.0015 0 0 0 
-0.0293775 0.0430709 -0.0015 0 0 0 
-0.0656961 0.0151257 -0.0015 0 0 0 
-0.029644 0.0319536 -0.0015 0 0 0 
-0.0376094 0.0448243 -0.0015 0 0 0 
-0.0261484 0.0349202 -0.0015 0 0 0 
-0.0403792 0.0317624 -0.0015 0 0 0 
0.0116747 0.0525906 -0.0015 0 0 0 
-0.061631 0.0245563 -0.0015 0 0 0 
-0.0558365 0.0140735 -0.0015 0 0 0 
-0.00172126 0.0414679 -0.0015 0 0 0 
-0.0504568 0.0318344 -0.0015 0 0 0 
-0.0453497 0.0404541 -0.0015 0 0 0 
0.0188301 0.0586085 -0.0015 0 0 0 
0.0130223 0.0593617 -0.0015 0 0 0 
-0.0186774 0.05306 -0.0015 0 0 0 
0.0368632 0.0603099 -0.0015 0 0 0 
-0.0109106 0.0507749 -0.0015 0 0 0 
-0.0515324 0.0425374 -0.0015 0 0 0 
-0.00507443 0.0700328 -0.0015 0 0 0 
0.0165928 0.0637148 -0.0015 0 0 0 
-0.0062613 0.0673648 -0.0015 0 0 0 
0.0608015 -0.0237204 0.127836 0 0 0 
0.0652251 -0.0251542 0.123162 0 0 0 
0.0674213 -0.00292118 0.094438 0 0 0 
0.0671252 -0.000552928 0.092136 0 0 0 
0.064668 -0.00603879 0.101961 0 0 0 
0.0635322 0.0187015 0.0751148 0 0 0 
0.0619393 0.0103282 0.0870274 0 0 0 
0.0573959 -0.014808 0.122448 0 0 0 
0.0551278 0.0256319 0.0791543 0 0 0 
0.0500845 0.026568 0.0852868 0 0 0 
0.0562551 0.00332287 0.103215 0 0 0 
0.0606262 0.0115618 0.0874849 0 0 0 
0.0529947 0.0297157 0.0775042 0 0 0 
0.0525295 0.0281663 0.0799522 0 0 0 
0.049288 0.0427367 0.0678193 0 0 0 
0.0467496 0.0353774 0.079917 0 0 0 
0.052874 -0.00648237 0.119331 0 0 0 
0.0497338 0.0228375 0.090081 0 0 0 
0.0485308 0.0263515 0.087757 0 0 0 
-0.0577008 -0.048054 0.0593736 0 0 0 
-0.0617725 -0.0432934 0.0582984 0 0 0 
-0.061493 -0.0484184 0.090368 0 0 0 
-0.052868 -0.062761 0.121042 0 0 0 
-0.0547402 -0.0545453 0.0803597 0 0 0 
-0.0463799 -0.0683556 0.109478 0 0 0 
-0.0554835 -0.0534759 0.0788272 0 0 0 
-0.0515173 -0.0551594 0.0601787 0 0 0 
-0.0529684 -0.0629843 0.123287 0 0 0 
-0.0509869 -0.0620429 0.102085 0 0 0 
-0.0582927 -0.0432516 0.0318084 0 0 0 
-0.0571964 -0.0412733 0.0103586 0 0 0 
-0.0581168 -0.0495032 0.0721704 0 0 0 
-0.0463701 -0.0671612 0.101439 0 0 0 
-0.0592925 -0.0546425 0.115297 0 0 0 
-0.0455792 -0.0706207 0.118551 0 0 0 
-0.0547683 -0.0610328 0.123832 0 0 0 
-0.0550084 -0.0601054 0.119456 0 0 0 
-0.0505905 -0.0629959 0.105454 0 0 0 
0.0577209 -0.0449502 0.0668736 0 0 0 
0.0517913 -0.040843 0.0182661 0 0 0 
0.0605046 -0.0222845 0.0109375 0 0 0 
0.0528216 -0.0415864 0.0268072 0 0 0 
0.0537212 -0.0423709 0.034698 0 0 0 
0.0672978 -0.0123803 0.019841 0 0 0 
0.0685887 -0.0293177 0.0817973 0 0 0 
0.0502586 -0.0511883 0.0422295 0 0 0 
0.0663846 -0.0120327 0.0132674 0 0 0 
0.0645117 -0.0191062 0.0247199 0 0 0 
0.0556064 -0.0340174 0.0192209 0 0 0 
0.0522076 -0.0477106 0.0427466 0 0 0 
0.0504194 -0.0424623 0.0152487 0 0 0 
0.0585472 -0.0340035 0.0367604 0 0 0 
0.0613094 -0.0443012 0.0862525 0 0 0 
0.0628677 -0.0167855 0.00745792 0 0 0 
0.0683605 -0.00837186 0.0133593 0 0 0 
0.0624441 -0.0254539 0.0326839 0 0 0 
0.0685416 -0.0297004 0.0827414 0 0 0 
0.0646205 -0.0429013 0.101568 0 0 0 
0.0585505 -0.0280823 0.0178191 0 0 0 
0.0658544 -0.0145782 0.0182483 0 0 0 
0.0634083 -0.0175396 0.0131054 0 0 0 
0.0542027 -0.0360704 0.0174015 0 0 0 
0.0535162 -0.0429081 0.0351929 0 0 0 
0.0606932 -0.0362855 0.0568997 0 0 0 
0.0622337 -0.0444855 0.0923689 0 0 0 
0.0690315 -0.0109726 0.0256996 0 0 0 
0.0563045 -0.0488678 0.0709496 0 0 0 
0.0651858 -0.0284626 0.0587116 0 0 0 
0.0675015 -0.0191313 0.0426771 0 0 0 
0.0555868 -0.04977 0.069547 0 0 0 
0.0640977 -0.0507016 0.12342 0 0 0 
0.0577013 -0.0584997 0.110144 0 0 0 
0.0561755 -0.0511635 0.0775293 0 0 0 
0.057886 -0.0599461 0.11588 0 0 0 
0.0580706 -0.0520141 0.0915844 0 0 0 
0.0504506 -0.0559005 0.0584665 0 0 0 
0.0480029 -0.057986 0.0505089 0 0 0 
0.0480754 -0.0562605 0.0454172 0 0 0 
0.0567153 -0.0570133 0.0994885 0 0 0 
-0.0590939 -0.0212006 0.127397 0 0 0 
-0.0613644 -0.0237191 0.125706 0 0 0 
-0.0623551 -0.0216437 0.12158 0 0 0 
-0.0625244 -0.0126165 0.111618 0 0 0 
-0.0584726 0.0134081 0.0916507 0 0 0 
-0.0558517 0.00383336 0.106926 0 0 0 
-0.0599231 0.00859282 0.0939939 0 0 0 
-0.0601303 0.0166261 0.0850189 0 0 0 
-0.0580045 -0.0119862 0.119661 0 0 0 
-0.0562488 -0.00264426 0.113075 0 0 0 
-0.0539406 0.00832309 0.105818 0 0 0 
-0.0521219 0.023425 0.0932049 0 0 0 
-0.0473722 -0.00856533 0.122869 0 0 0 
-0.0435812 0.0105358 0.109472 0 0 0 
0.0354062 -0.0151191 0.127268 0 0 0 
-0.0396894 -0.0203065 0.131081 0 0 0 
-0.0453914 -0.017206 0.128921 0 0 0 
0.0231972 -0.0141378 0.126609 0 0 0 
-0.0262235 -0.00909317 0.12319 0 0 0 
-0.0371876 -0.00122517 0.117701 0 0 0 
-0.0527516 -0.00930557 0.123401 0 0 0 
-0.0233411 -0.0149243 0.12727 0 0 0 
-0.0257945 -0.00748538 0.122062 0 0 0 
-0.0315545 0.00530672 0.113109 0 0 0 
-0.0448896 -0.0210654 0.131625 0 0 0 
-0.0203961 -0.0118696 0.125122 0 0 0 
0.00695438 -0.00688143 0.121561 0 0 0 
-0.0267186 -0.00128246 0.117716 0 0 0 
-0.0143264 -0.00755171 0.122081 0 0 0 
0.019188 -0.0184229 0.129622 0 0 0 
-0.0339507 -0.0067408 0.121559 0 0 0 
0.0233194 -0.0226812 0.132597 0 0 0 
-0.0155858 0.0186879 0.103693 0 0 0 
0.0177227 0.00260992 0.114884 0 0 0 
0.0113874 0.0378918 0.0901696 0 0 0 
-0.00150166 0.00483935 0.113366 0 0 0 
0.0143727 -0.00476989 0.120064 0 0 0 
-0.00969941 0.0339516 0.0929807 0 0 0 
-0.024153 0.00917601 0.11038 0 0 0 
0.0419105 -0.0029299 0.11871 0 0 0 
0.00999013 0.00591389 0.112586 0 0 0 
0.0310817 -0.00385188 0.119381 0 0 0 
-0.0234454 0.0238111 0.100121 0 0 0 
0.015328 -0.00681592 0.121496 0 0 0 
0.0139851 -0.00565213 0.120683 0 0 0 
0.0166198 0.0125021 0.107953 0 0 0 
-0.0293617 0.0162076 0.105464 0 0 0 
0.00152108 0.000943241 0.11609 0 0 0 
-0.00715646 0.0384948 0.0897905 0 0 0 
-0.00465969 0.0480601 0.0830803 0 0 0 
-0.0162826 0.0408941 0.0881302 0 0 0 
-0.0306645 0.0116026 0.108694 0 0 0 
-0.0270675 0.0238663 0.10009 0 0 0 
0.000748036 0.00438298 0.113681 0 0 0 
0.0133445 0.0309869 0.0950045 0 0 0 
0.0258338 -0.00300749 0.118802 0 0 0 
-0.0306314 0.0269188 0.0979592 0 0 0 
0.031254 0.00478253 0.113329 0 0 0 
-0.0676043 0.0105351 0.00101926 0 0 0 
-0.0612842 0.03288 0.0195842 0 0 0 
-0.0629549 0.025843 0.00194738 0 0 0 
-0.0698032 0.00408127 0.00943179 0 0 0 
-0.0624909 0.0281202 0.0104786 0 0 0 
-0.0683068 0.00942943 0.0144752 0 0 0 
-0.0650645 0.0193056 0.00612334 0 0 0 
-0.0650174 0.0201768 0.0142014 0 0 0 
-0.0636008 0.0248785 0.0149073 0 0 0 
-0.0665378 0.0162928 0.0265337 0 0 0 
-0.062308 0.0299481 0.0243229 0 0 0 
-0.0642271 0.0259003 0.049514 0 0 0 
-0.0599403 0.0365765 0.011651 0 0 0 
0.0162778 -0.0687743 0.043297 0 0 0 
0.0033542 -0.0618331 0.00136502 0 0 0 
0.0136447 -0.078712 0.0919495 0 0 0 
-0.00539661 -0.0677795 0.0266136 0 0 0 
0.000952812 -0.0726173 0.0544076 0 0 0 
-0.0102212 -0.0652139 0.0110889 0 0 0 
0.0167392 -0.0733348 0.0665229 0 0 0 
0.0304083 -0.0639066 0.0263805 0 0 0 
0.022486 -0.0596095 0.000463717 0 0 0 
-0.00612378 -0.0695248 0.0350152 0 0 0 
0.0282636 -0.0614847 0.0130229 0 0 0 
0.0155753 -0.0698843 0.0485112 0 0 0 
0.00662399 -0.0686004 0.0372222 0 0 0 
0.0225199 -0.0664076 0.0347337 0 0 0 
0.0294436 -0.0616093 0.014286 0 0 0 
0.00753638 -0.0756955 0.0734618 0 0 0 
0.0140103 -0.0735471 0.0661235 0 0 0 
0.02268 -0.0599354 0.00221044 0 0 0 
0.0241314 -0.0707616 0.0575386 0 0 0 
-0.00244453 -0.0713006 0.0459441 0 0 0 
-0.01841 -0.0662257 0.0117773 0 0 0 
0.00171588 -0.0756105 0.0698992 0 0 0 
-0.0063646 -0.0635713 0.00488962 0 0 0 
0.0094172 -0.0638471 0.0147771 0 0 0 
-0.00728705 -0.0697666 0.0356074 0 0 0 
0.0292653 -0.0678398 0.0455819 0 0 0 
0.0106508 -0.0636013 0.0142032 0 0 0 
0.00553701 -0.0796174 0.0921455 0 0 0 
0.0315116 -0.0650765 0.0328689 0 0 0 
0.0130656 -0.062085 0.0078638 0 0 0 
0.0299092 -0.0611907 0.0124278 0 0 0 
0.0587558 0.0347894 0.0582995 0 0 0 
0.0538854 0.0422055 0.0304434 0 0 0 
0.0470723 0.045782 0.0658602 0 0 0 
0.0618484 0.032462 0.0499265 0 0 0 
0.0502415 0.0431468 0.0600163 0 0 0 
0.0605672 0.0354733 0.0309948 0 0 0 
0.0512867 0.0465456 0.0113867 0 0 0 
0.0471138 0.0462369 0.060428 0 0 0 
0.0543482 0.0426284 0.0207508 0 0 0 
0.0428037 0.0536882 0.026055 0 0 0 
0.0464475 0.0465184 0.064638 0 0 0 
0.0521228 0.0440484 0.029563 0 0 0 
0.0534246 0.0448568 0.00647248 0 0 0 
0.0442858 0.0534623 0.0123095 0 0 0 
0.0448431 0.0482996 0.0627025 0 0 0 
-0.00538342 0.0547123 0.0705617 0 0 0 
-0.00334476 0.0583407 0.0575909 0 0 0 
-0.0371309 0.0533658 0.0569291 0 0 0 
-0.00215909 0.0572506 0.0625582 0 0 0 
-0.0124824 0.0542286 0.0682273 0 0 0 
-0.018531 0.0571847 0.0529506 0 0 0 
-0.0211181 0.057812 0.0483654 0 0 0 
-0.00388894 0.0676805 0.0162397 0 0 0 
-0.00560997 0.0598614 0.0499336 0 0 0 
-0.00583237 0.0624447 0.0382553 0 0 0 
-0.00956837 0.0663943 0.0180549 0 0 0 
0.0027892 0.0607563 0.0517428 0 0 0 
0.00435446 0.0627365 0.04399 0 0 0 
-0.016892 0.0582489 0.0493352 0 0 0 
-0.00462981 0.0606415 0.0471306 0 0 0 
-0.00492387 0.0625601 0.0383682 0 0 0 
-0.000813812 -0.0276635 0.132221 0 0 0 
-0.00242634 -0.0263592 0.13246 0 0 0 
0.00600849 -0.0289538 0.131939 0 0 0 
0.0594128 -0.0277823 0.131668 0 0 0 
0.0611112 -0.0333476 0.130695 0 0 0 
0.0144448 -0.0356649 0.130709 0 0 0 
-0.0396441 -0.032658 0.131705 0 0 0 
-0.0576868 -0.026899 0.132856 0 0 0 
-0.0563417 -0.0323446 0.131907 0 0 0 
-0.0464946 -0.0284367 0.132492 0 0 0 
0.0191329 -0.0314707 0.13139 0 0 0 
-0.0425605 -0.0298345 0.132217 0 0 0 
-0.0388415 -0.0440366 0.12974 0 0 0 
-0.0429396 -0.042934 0.129966 0 0 0 
0.0170643 -0.0375401 0.130364 0 0 0 
0.00304706 -0.0371855 0.130549 0 0 0 
-0.0222366 -0.0478961 0.128929 0 0 0 
0.0245731 -0.0453613 0.128952 0 0 0 
-0.0522681 -0.0607637 0.126981 0 0 0 
-0.0515585 -0.0496368 0.128889 0 0 0 
-0.00357991 -0.0583618 0.126964 0 0 0 
-0.0138497 -0.0672335 0.125528 0 0 0 
-0.0209973 -0.0486538 0.128788 0 0 0 
-0.0243337 -0.0557824 0.127591 0 0 0 
-0.0465708 -0.052327 0.128382 0 0 0 
-0.0317895 -0.0497368 0.128697 0 0 0 
0.00760854 -0.0554885 0.127359 0 0 0 
-0.0208458 -0.066133 0.12578 0 0 0 
-0.0210647 -0.0652574 0.125932 0 0 0 
-0.0165182 -0.0455696 0.129279 0 0 0 
-0.0460977 -0.0653334 0.126141 0 0 0 
0.000954233 -0.058396 0.126918 0 0 0 
-0.0479969 -0.0668263 0.125901 0 0 0 
0.0402465 -0.052569 0.127573 0 0 0 
-0.000594965 -0.0704056 0.124865 0 0 0 
-0.0146786 -0.0737425 0.124416 0 0 0 
0.0225069 -0.0621198 0.126087 0 0 0 
0.0343962 -0.0596665 0.126403 0 0 0 
0.0261935 -0.0590911 0.126575 0 0 0 
0.0247452 -0.0594709 0.126522 0 0 0 
0.00727193 -0.0760996 0.123816 0 0 0 
0.0397143 -0.0501657 0.127991 0 0 0 
0.00114353 -0.0689924 0.125093 0 0 0 
0.0296082 -0.0603007 0.126337 0 0 0 
0.0121688 -0.0620947 0.126182 0 0 0 
0.0578176 -0.0476351 0.128266 0 0 0 
0.0512784 -0.0638019 0.125542 0 0 0 
0.0634375 -0.0390905 0.129687 0 0 0 
0.0459686 -0.0580879 0.126573 0 0 0 
0.0678405 -0.027591 0.119622 0 0 0 
0.0680503 -0.0337903 0.118976 0 0 0 
0.0684437 -0.03578 0.107406 0 0 0 
0.068809 -0.0234825 0.0831598 0 0 0 
0.0684579 -0.019628 0.091576 0 0 0 
0.0685419 -0.0240576 0.092893 0 0 0 
0.0685242 -0.0155981 0.0854692 0 0 0 
0.0696394 0.00576748 0.0268209 0 0 0 
0.070255 -0.00201963 0.0130378 0 0 0 
0.0704185 -0.00129375 0.00672647 0 0 0 
0.0684052 0.00966571 0.0655733 0 0 0 
0.0681846 -0.0132195 0.0948938 0 0 0 
0.0683762 -0.0371712 0.111046 0 0 0 
0.0686126 -0.024569 0.0909464 0 0 0 
0.0683217 -0.00650299 0.0837976 0 0 0 
0.0702356 0.0015966 0.0102737 0 0 0 
0.0685762 -0.0294473 0.0968339 0 0 0 
0.069566 -0.0140873 0.0481999 0 0 0 
0.0693433 -0.0127944 0.054631 0 0 0 
0.0689128 -0.0121093 0.0687906 0 0 0 
0.0698732 -0.0125868 0.0362073 0 0 0 
-0.0670287 -0.0269947 0.113484 0 0 0 
-0.0671572 -0.000780478 0.0872193 0 0 0 
-0.067619 -0.0251055 0.095151 0 0 0 
-0.0674702 -0.0133926 0.0893174 0 0 0 
-0.0685158 -0.0234193 0.0701676 0 0 0 
-0.0685173 -0.0174522 0.0651633 0 0 0 
-0.0691777 -0.00934392 0.041051 0 0 0 
-0.0678772 0.00916554 0.0598444 0 0 0 
-0.0682974 -0.0262119 0.078233 0 0 0 
-0.0676343 0.00781874 0.0673539 0 0 0 
-0.070336 -0.000759348 0.00345056 0 0 0 
-0.0686541 0.00591493 0.0421224 0 0 0 
-0.0688884 -0.00318979 0.0435355 0 0 0 
-0.0673639 -0.0290251 0.10512 0 0 0 
-0.0697221 -0.00276326 0.0212592 0 0 0 
-0.0682802 0.00727784 0.0508187 0 0 0 
-0.067323 -0.0280984 0.105425 0 0 0 
-0.0682143 0.00668639 0.0530436 0 0 0 
-0.0692821 0.00442238 0.0268501 0 0 0 
-0.0680111 -0.00304338 0.0664819 0 0 0 
-0.0687857 0.00737089 0.0374508 0 0 0 
-0.0671348 -0.0384849 0.119016 0 0 0 
-0.0703412 -0.00049058 0.0030892 0 0 0 
0.0398757 -0.0576559 0.00218243 0 0 0 
0.0288861 -0.0766911 0.122465 0 0 0 
0.0295488 -0.0692252 0.0573829 0 0 0 
0.0502012 -0.0653259 0.123073 0 0 0 
0.0461226 -0.0600176 0.0544649 0 0 0 
0.0470781 -0.0616066 0.0736991 0 0 0 
0.0200622 -0.0808863 0.117548 0 0 0 
0.039766 -0.0591013 0.0148742 0 0 0 
0.0482593 -0.0644709 0.105714 0 0 0 
0.0408236 -0.0611551 0.0388639 0 0 0 
0.0394134 -0.0632858 0.0514438 0 0 0 
0.0351743 -0.0729057 0.118685 0 0 0 
0.0287021 -0.0767323 0.121939 0 0 0 
0.0407738 -0.067995 0.101225 0 0 0 
0.0194812 -0.0816733 0.121899 0 0 0 
0.0395949 -0.0643872 0.0624158 0 0 0 
0.0202306 -0.0788644 0.0998683 0 0 0 
0.0521785 -0.061176 0.0947952 0 0 0 
0.04537 -0.0635954 0.0835176 0 0 0 
0.0335819 -0.0692352 0.0772724 0 0 0 
0.0360192 -0.0631068 0.0331438 0 0 0 
0.0423563 -0.0600434 0.0362125 0 0 0 
0.0229435 -0.0758344 0.0854522 0 0 0 
0.0480739 -0.0608067 0.0712652 0 0 0 
-0.0450846 0.0526652 0.0122905 0 0 0 
-0.0528549 0.0441375 0.0205788 0 0 0 
-0.0452829 0.0527341 0.00936576 0 0 0 
-0.0524009 0.0463187 0.00167768 0 0 0 
-0.0472648 0.0504297 0.0128959 0 0 0 
-0.0464496 0.0495423 0.0315256 0 0 0 
-0.0480661 0.0460377 0.0521853 0 0 0 
-0.0429824 0.0548223 0.0116897 0 0 0 
-0.0403991 0.0582349 0.00261412 0 0 0 
-0.0560637 0.0390977 0.040614 0 0 0 
-0.0426817 0.0512584 0.0539748 0 0 0 
-0.0536235 0.0418745 0.0369312 0 0 0 
-0.0497603 0.0194083 0.100953 0 0 0 
-0.023987 0.0376445 0.0887446 0 0 0 
-0.0315888 0.0317056 0.0931857 0 0 0 
-0.0432301 0.0329939 0.0844133 0 0 0 
-0.040135 0.0451237 0.0680386 0 0 0 
-0.031429 0.0412037 0.0790334 0 0 0 
-0.0397104 0.0472987 0.0650258 0 0 0 
-0.0376725 0.0494213 0.0630395 0 0 0 
-0.0381138 0.0522476 0.0585412 0 0 0 
-0.0398371 0.0523925 0.0573113 0 0 0 
-0.0351013 0.0375701 0.0823257 0 0 0 
0.0430721 0.0495085 0.0625783 0 0 0 
0.0130595 0.0617735 0.0521805 0 0 0 
0.0240775 0.0562125 0.0584279 0 0 0 
0.0346122 0.0549046 0.0551952 0 0 0 
0.00808945 0.0569447 0.0662101 0 0 0 
0.0321389 0.0447335 0.0800141 0 0 0 
0.0172371 0.0566958 0.0613671 0 0 0 
0.0197456 0.0556459 0.0622931 0 0 0 
0.0114258 0.050577 0.0788566 0 0 0 
0.0241698 0.0621088 0.0221234 0 0 0 
0.0256299 0.0634016 0.00729064 0 0 0 
0.00640249 0.0702112 -0.000710539 0 0 0 
0.0266188 0.061952 0.0170805 0 0 0 
0.00624896 0.0689594 0.0103684 0 0 0 
0.00188784 0.0709943 0.00437106 0 0 0 
0.0182345 0.0650093 0.0128414 0 0 0 
0.023187 0.065137 -0.00115036 0 0 0 
0.0305715 0.0589718 0.0322074 0 0 0 
0.0367648 0.0547306 0.052255 0 0 0 
0.031598 0.0598711 0.0218611 0 0 0 
0.0285109 0.0576887 0.048522 0 0 0 
0.025556 0.0610419 0.0276133 0 0 0 
0.0379131 0.0569706 0.0301534 0 0 0 
-0.00834292 -0.0766938 0.0801566 0 0 0 
-0.0103692 -0.07317 0.0535213 0 0 0 
-0.000700763 -0.0787363 0.088845 0 0 0 
-0.0194112 -0.0771586 0.0955017 0 0 0 
-0.0220816 -0.0675183 0.0196348 0 0 0 
-0.00247972 -0.0819746 0.117122 0 0 0 
-0.0219983 -0.0769211 0.0962641 0 0 0 
-0.0154871 -0.0797786 0.112782 0 0 0 
-0.0138141 -0.0733401 0.0585046 0 0 0 
-0.0297463 -0.0703506 0.050743 0 0 0 
-0.0163424 -0.0706233 0.0389783 0 0 0 
-0.0229385 -0.0691169 0.0335724 0 0 0 
-0.0140867 -0.0768583 0.0874943 0 0 0 
-0.0244976 -0.0750506 0.0836115 0 0 0 
0.00564072 -0.0824796 0.112767 0 0 0 
-0.0176365 -0.0728102 0.0581709 0 0 0 
-0.023952 -0.0672226 0.0191745 0 0 0 
-0.0159368 -0.0778956 0.0978882 0 0 0 
-0.0213806 -0.0680185 0.0229847 0 0 0 
-0.0204529 -0.0722968 0.0569219 0 0 0 
-0.0279113 -0.0775456 0.107531 0 0 0 
-0.0328037 -0.0768789 0.107198 0 0 0 
-0.037918 -0.0771457 0.114712 0 0 0 
-0.0161315 -0.0711473 0.0430334 0 0 0 
-0.0148343 -0.0791909 0.107305 0 0 0 
-0.0661162 -0.0358304 0.0765696 0 0 0 
-0.0641973 -0.0245205 0.0155062 0 0 0 
-0.0632323 -0.0338288 0.0368452 0 0 0 
-0.0694239 -0.0109433 0.0277872 0 0 0 
-0.0656331 -0.0171278 0.00616641 0 0 0 
-0.0611101 -0.0308926 0.00253342 0 0 0 
-0.0640035 -0.0289936 0.0288281 0 0 0 
-0.060677 -0.0343757 0.00970058 0 0 0 
-0.0620359 -0.0269653 -0.000574043 0 0 0 
-0.0639024 -0.0231984 0.00756588 0 0 0 
-0.0658787 -0.0308952 0.0567408 0 0 0 
-0.064774 -0.0221545 0.0138489 0 0 0 
-0.069498 -0.0106626 0.0276548 0 0 0 
-0.0631934 -0.0355843 0.0424956 0 0 0 
-0.0645775 -0.0361547 0.0602071 0 0 0 
-0.068113 -0.0117653 0.0157411 0 0 0 
-0.0663564 -0.0235947 0.0368321 0 0 0 
-0.0645679 -0.0328911 0.0487704 0 0 0 
-0.0678367 -0.0150794 0.0241032 0 0 0 
-0.0669779 -0.046819 0.124502 0 0 0 
0.0616991 0.0298937 0.00129033 0 0 0 
0.0647489 0.0210111 0.0136655 0 0 0 
0.0636594 0.0262888 0.03282 0 0 0 
0.067068 0.013246 0.0117526 0 0 0 
0.0657627 0.0191779 0.0303205 0 0 0 
0.0635472 0.0259137 0.024502 0 0 0 
0.0634095 0.0262092 0.022759 0 0 0 
0.0597264 0.0372656 0.0115024 0 0 0 
0.0620885 0.0301797 0.0187769 0 0 0 
0.0667111 0.0136829 0.00355388 0 0 0 
0.0693965 0.00592152 0.0151219 0 0 0 
0.0653816 0.0226616 0.0553597 0 0 0 
0.0678163 0.0156072 0.0656422 0 0 0 
0.0675623 0.0149168 0.0485967 0 0 0 
-0.0287106 0.0601572 0.0269437 0 0 0 
-0.0286338 0.059348 0.0340477 0 0 0 
-0.0356053 0.0606152 0.00507298 0 0 0 
-0.0260674 0.0611187 0.0256274 0 0 0 
-0.0264186 0.0605462 0.0295969 0 0 0 
-0.0128284 0.0670679 0.00936518 0 0 0 
-0.0332268 0.0593606 0.0219735 0 0 0 
-0.0283834 0.0593182 0.0349543 0 0 0 
-0.0216558 0.0628497 0.0223539 0 0 0 
-0.0407076 -0.0607096 0.0401173 0 0 0 
-0.0535897 -0.0452858 0.0152037 0 0 0 
-0.0424736 -0.0581858 0.0346264 0 0 0 
-0.0427922 -0.0546503 0.01802 0 0 0 
-0.0378445 -0.0755494 0.103509 0 0 0 
-0.0429473 -0.0608272 0.049977 0 0 0 
-0.0317764 -0.0623114 0.0112983 0 0 0 
-0.0404419 -0.0687938 0.0800029 0 0 0 
-0.0281906 -0.0648565 0.00937039 0 0 0 
-0.0397168 -0.0722349 0.0944492 0 0 0 
-0.0411927 -0.0665062 0.071511 0 0 0 
-0.0491572 -0.0509245 0.0254573 0 0 0 
-0.0351379 -0.0710537 0.0695226 0 0 0 
-0.0409465 -0.0741818 0.109406 0 0 0 
-0.0348778 -0.0641622 0.0335089 0 0 0 
-0.0362491 -0.0587368 0.0116755 0 0 0 
-0.0327603 -0.067706 0.0427167 0 0 0 
-0.0362518 -0.0736619 0.0873523 0 0 0 
-0.0373412 -0.0689558 0.0679998 0 0 0 
-0.0613479 0.0224145 0.0741181 0 0 0 
-0.0645803 0.019848 0.0720433 0 0 0 
-0.0555532 0.0227501 0.0873014 0 0 0 
-0.0567087 0.0267639 0.0756184 0 0 0 
-0.0580038 0.035509 0.0528677 0 0 0 
-0.0568722 0.0370027 0.0522738 0 0 0 
-0.0568717 0.0320793 0.0634135 0 0 0 
0.02909 0.0444052 0.0809947 0 0 0 
0.054995 -0.0165706 0.127652 0 0 0 
0.0349132 0.0145321 0.105267 0 0 0 
0.0165996 0.0333826 0.0929635 0 0 0 
0.0250515 0.0311545 0.0931237 0 0 0 
0.0410549 0.00811782 0.109471 0 0 0 
0.0201038 0.0331985 0.0923992 0 0 0 
0.0297794 0.0208395 0.100945 0 0 0 
0.0296795 0.0282201 0.094673 0 0 0 
0.0158136 0.0384358 0.0888168 0 0 0 
0.0336642 0.0409386 0.0830089 0 0 0 
0.029396 0.0299178 0.093284 0 0 0 
0.0190444 0.0458088 0.0818655 0 0 0 
