ply
format ascii 1.0
comment Created by CloudCompare v2.10.3 (Zephyrus)
comment Created 28.11.21 12:39
obj_info Generated by CloudCompare!
element vertex 1006
property float x
property float y
property float z
property float nx
property float ny
property float nz
end_header
0.0105439 -0.0479485 0.057362 0 0 0 
-0.00398148 -0.0482097 0.0565783 0 0 0 
0.00470935 -0.04801 0.0573827 0 0 0 
0.00120121 -0.00301162 0.0611417 0 0 0 
-0.0300799 0.0154818 0.061595 0 0 0 
0.0186081 -0.0285721 0.0606722 0 0 0 
0.00138652 -0.0193672 0.060908 0 0 0 
0.0100565 -0.0186405 0.0608655 0 0 0 
0.0321296 -0.0201923 0.0607091 0 0 0 
-0.00234939 -0.0169419 0.0609652 0 0 0 
-0.0229378 0.0124651 0.0615087 0 0 0 
0.00160338 -0.0290302 0.0607692 0 0 0 
0.0291939 -0.0186467 0.060749 0 0 0 
0.0367661 -0.0130603 0.0607823 0 0 0 
0.0210929 -0.00485701 0.0609944 0 0 0 
-0.00584381 0.00780792 0.0613384 0 0 0 
0.00782772 -0.00110418 0.0611285 0 0 0 
0.024758 -0.000799662 0.0610298 0 0 0 
0.0293993 -0.00915944 0.0608826 0 0 0 
0.0334446 0.00575035 0.06107 0 0 0 
-0.00100077 -0.00206096 0.0611686 0 0 0 
0.0377137 -0.00902174 0.060834 0 0 0 
-0.0353485 0.0135608 0.0615998 0 0 0 
0.0192703 0.00943881 0.0612088 0 0 0 
0.0366071 -0.00987223 0.0608286 0 0 0 
-0.0105095 -0.0207585 0.0609606 0 0 0 
-0.0319318 0.00437219 0.0614483 0 0 0 
-0.00196416 -0.0294512 0.0607849 0 0 0 
0.0361163 -0.00515112 0.0608988 0 0 0 
0.00413159 -0.0219325 0.0608548 0 0 0 
0.0110334 -0.00216749 0.0610938 0 0 0 
-0.0247066 0.0071828 0.0614443 0 0 0 
0.0232882 -0.0218293 0.0607396 0 0 0 
-0.0174438 -0.0118644 0.0611292 0 0 0 
0.0194098 0.00368478 0.0611261 0 0 0 
0.0243746 -0.0245901 0.0606938 0 0 0 
-0.0010887 -0.0133266 0.0610089 0 0 0 
0.0333268 -0.0145115 0.0607826 0 0 0 
0.00534648 -0.028333 0.0607564 0 0 0 
0.026705 -0.00847406 0.0609088 0 0 0 
-0.0177386 0.0136603 0.061494 0 0 0 
0.0292642 -0.00364836 0.0609618 0 0 0 
-0.00286634 -0.0249183 0.0608549 0 0 0 
0.0347683 -0.00767396 0.0608711 0 0 0 
0.00195593 -0.0211325 0.0608794 0 0 0 
0.0211636 0.0181154 0.0605273 0 0 0 
-0.0104324 0.0160449 0.0612861 0 0 0 
0.0321993 0.0154318 0.060534 0 0 0 
-0.00797589 0.0176458 0.0611123 0 0 0 
0.048498 0.0122041 0.0604851 0 0 0 
0.0457605 0.00791346 0.0608787 0 0 0 
0.0524382 0.00785122 0.0607582 0 0 0 
0.0483511 0.00959845 0.0606957 0 0 0 
0.0456862 0.0166511 0.0601834 0 0 0 
-0.011915 0.0189713 0.0610806 0 0 0 
0.0290204 0.0123952 0.0608358 0 0 0 
0.0387453 0.0195086 0.0600859 0 0 0 
0.0139584 0.0235047 0.060233 0 0 0 
-0.00581416 0.0263362 0.0603787 0 0 0 
0.0219558 0.038559 0.0588823 0 0 0 
-0.0377821 0.0203238 0.0614587 0 0 0 
-0.0254269 0.0232423 0.0609939 0 0 0 
0.0300282 0.0323286 0.0592275 0 0 0 
0.0243656 0.0251327 0.0599076 0 0 0 
0.00258975 0.0282647 0.060067 0 0 0 
0.00634489 0.0421978 0.0588854 0 0 0 
0.0216825 0.0365755 0.0590456 0 0 0 
-0.0160434 0.0283416 0.060411 0 0 0 
0.0339644 0.0274257 0.0595444 0 0 0 
-0.026582 0.0243279 0.060929 0 0 0 
-0.0261552 0.0338182 0.0601642 0 0 0 
0.0282379 0.0274313 0.0596516 0 0 0 
-0.0244976 0.0277658 0.0606157 0 0 0 
0.01662 0.0421876 0.0586932 0 0 0 
0.00714957 0.0506299 0.0581979 0 0 0 
0.00807793 0.0404794 0.0589899 0 0 0 
0.000966154 0.049383 0.0584135 0 0 0 
0.0236054 0.039644 0.0587648 0 0 0 
-0.00541903 0.0262381 0.0603791 0 0 0 
0.0200822 0.036265 0.0591004 0 0 0 
-0.0119182 0.0382118 0.0595464 0 0 0 
-0.0252402 0.0419886 -0.0593647 0 0 0 
-0.0240482 0.0471279 -0.0549907 0 0 0 
-0.0243007 0.0458358 -0.0561267 0 0 0 
-0.0163485 0.051781 -0.0561238 0 0 0 
-0.00883315 0.0616411 -0.0517545 0 0 0 
-0.0122034 0.0607284 -0.0501013 0 0 0 
-0.0451368 0.0365828 -0.0495 0 0 0 
-0.0462319 0.0417113 -0.0430964 0 0 0 
-0.0487141 0.0500993 -0.0320643 0 0 0 
-0.046407 0.0416421 -0.0430293 0 0 0 
-0.0157429 0.0609503 -0.0470265 0 0 0 
-0.0176845 0.0623293 -0.0439738 0 0 0 
-0.024648 0.0534463 -0.0479069 0 0 0 
-0.0370528 0.0429839 -0.0491432 0 0 0 
-0.0428226 0.0372413 -0.0506612 0 0 0 
-0.0372219 0.0495443 -0.0419467 0 0 0 
-0.004243 0.0680223 -0.0487076 0 0 0 
-0.047439 0.0335611 -0.0508918 0 0 0 
-0.0415491 0.0574166 -0.0299996 0 0 0 
-0.0227919 0.0625746 -0.0395922 0 0 0 
-0.0455648 0.0593211 -0.0247274 0 0 0 
-0.0366843 0.0644043 -0.0264436 0 0 0 
-0.0271871 0.0598949 -0.038918 0 0 0 
-0.032143 0.0605822 -0.0341905 0 0 0 
-0.0446984 0.0544689 -0.0306159 0 0 0 
-0.0137172 0.0715434 -0.0373083 0 0 0 
-0.0339212 0.0690424 -0.023708 0 0 0 
-0.0325083 0.0683153 -0.025624 0 0 0 
0.0474534 0.0654223 -0.0166655 0 0 0 
0.0558829 0.0471846 -0.0295098 0 0 0 
0.0521882 0.0566454 -0.0223575 0 0 0 
0.0373521 0.0675145 -0.0217835 0 0 0 
0.0360635 0.0672221 -0.0230169 0 0 0 
0.0540776 0.0438903 -0.0342313 0 0 0 
0.0364151 0.0438146 -0.0483441 0 0 0 
0.0386203 0.0449234 -0.0453644 0 0 0 
0.0390815 0.0546293 -0.034358 0 0 0 
0.0418612 0.0572712 -0.0292383 0 0 0 
0.0388596 0.0501247 -0.0394724 0 0 0 
0.0364136 0.049584 -0.0420222 0 0 0 
0.0427183 0.0442203 -0.0428558 0 0 0 
0.042343 0.0441493 -0.0432339 0 0 0 
0.0464371 0.0520503 -0.0312988 0 0 0 
0.0396759 0.0532674 -0.0353749 0 0 0 
0.036887 0.0500866 -0.0410926 0 0 0 
0.0375107 0.0403125 -0.0513056 0 0 0 
0.031338 0.0457907 -0.0503445 0 0 0 
0.0216735 0.0520308 -0.0516201 0 0 0 
0.0326546 0.0564568 -0.0375031 0 0 0 
0.0147557 0.0561707 -0.0528926 0 0 0 
0.0245064 0.0481358 -0.0535187 0 0 0 
0.0219244 0.0500049 -0.0536373 0 0 0 
0.0309309 0.0500055 -0.0460513 0 0 0 
0.0334053 0.0358359 -0.0595538 0 0 0 
0.0325585 0.0420495 -0.053432 0 0 0 
0.0251194 0.0474528 -0.0537537 0 0 0 
0.0194678 0.0611671 -0.0434281 0 0 0 
0.0241357 0.0683831 -0.031559 0 0 0 
0.0218235 0.0495582 -0.0542137 0 0 0 
0.0287425 0.0650384 -0.0313582 0 0 0 
-0.0438906 -0.037823 -0.0501051 0 0 0 
-0.051984 -0.0338052 -0.0444045 0 0 0 
-0.0607276 -0.0123949 -0.0433594 0 0 0 
-0.0568967 -0.0326094 -0.0405718 0 0 0 
-0.0529289 -0.026103 -0.0459058 0 0 0 
-0.05162 -0.0264367 -0.0469224 0 0 0 
-0.0434334 -0.0442652 -0.0485653 0 0 0 
-0.0510438 -0.0412476 -0.042977 0 0 0 
-0.0549261 -0.0378757 -0.0406753 0 0 0 
-0.0563232 -0.0153213 -0.0462401 0 0 0 
-0.0592682 -0.00528171 -0.0467704 0 0 0 
-0.0470671 -0.0257163 -0.0510638 0 0 0 
-0.0564218 -0.00743394 -0.0485883 0 0 0 
-0.0565418 -0.00729859 -0.0485255 0 0 0 
-0.039527 -0.0171914 -0.0605888 0 0 0 
-0.0541123 0.00284747 -0.053867 0 0 0 
-0.0391655 -0.0349485 -0.05515 0 0 0 
-0.0351397 -0.0315589 -0.0599024 0 0 0 
-0.0421671 -0.0132832 -0.0594633 0 0 0 
-0.0500242 -0.00818164 -0.0539933 0 0 0 
-0.0374116 -0.0348794 -0.0567633 0 0 0 
0.0568976 0.0440581 0.0227491 0 0 0 
0.0611101 0.0377969 0.0231046 0 0 0 
0.0557533 0.0537603 0.0134402 0 0 0 
0.059161 0.0401715 0.0235416 0 0 0 
0.0571701 0.052978 0.0120358 0 0 0 
0.0511313 0.0288213 0.0496733 0 0 0 
0.0548213 0.0493629 0.0200194 0 0 0 
0.0468855 0.0494362 0.0329241 0 0 0 
0.0464819 0.0330013 0.0524796 0 0 0 
0.0501587 0.0593438 0.0161717 0 0 0 
0.0518763 0.0459427 0.0287645 0 0 0 
0.0380901 0.0638502 0.0307618 0 0 0 
0.0414861 0.0555595 0.0347298 0 0 0 
0.0457803 0.0364999 0.0496068 0 0 0 
0.047739 0.0542885 0.0259475 0 0 0 
0.0461484 0.0476475 0.0361879 0 0 0 
0.0488995 0.0399703 0.0405072 0 0 0 
0.0404533 0.0645917 0.0260379 0 0 0 
0.0448395 0.0427237 0.0439929 0 0 0 
0.0509397 0.0311032 0.047359 0 0 0 
-0.0517556 0.0254604 0.0497454 0 0 0 
-0.0490999 0.0368717 0.0413444 0 0 0 
-0.0396041 0.0456431 0.0473232 0 0 0 
-0.0627187 0.0406775 0.0143448 0 0 0 
-0.056127 0.040886 0.0251073 0 0 0 
-0.0496077 0.0225913 0.0565549 0 0 0 
-0.0422262 0.0545948 0.0328832 0 0 0 
-0.0414109 0.0509258 0.0383688 0 0 0 
-0.0377054 0.0491764 0.0465179 0 0 0 
-0.0495133 0.036958 0.0405577 0 0 0 
-0.0519224 0.0270425 0.0476881 0 0 0 
-0.0384489 0.055921 0.0376935 0 0 0 
-0.0351897 0.0565123 0.042466 0 0 0 
-0.0462979 0.0380647 0.0446775 0 0 0 
-0.0412851 0.055015 0.0339808 0 0 0 
-0.0419901 0.0371231 0.0529229 0 0 0 
-0.0443918 0.0509237 0.0333981 0 0 0 
-0.0577438 0.0473867 0.0151002 0 0 0 
-0.06237 0.0433053 0.0119717 0 0 0 
-0.0490499 0.0523612 0.0240107 0 0 0 
-0.033462 0.0672006 0.0333294 0 0 0 
-0.039075 0.0627447 0.0289758 0 0 0 
-0.0445427 0.0639355 0.0185152 0 0 0 
-0.0405055 0.0664562 0.0224157 0 0 0 
0.0408808 -0.0323636 -0.0591879 0 0 0 
0.0363125 -0.0417376 -0.0607022 0 0 0 
0.0491685 -0.0232936 -0.0520091 0 0 0 
0.0373243 -0.0354181 -0.0627363 0 0 0 
0.0577487 -0.0173172 -0.0426708 0 0 0 
0.0612171 -0.00805256 -0.0427203 0 0 0 
0.0498892 -0.0182957 -0.0537353 0 0 0 
0.055553 -0.0194987 -0.0446964 0 0 0 
0.0566017 -0.0166715 -0.0447259 0 0 0 
0.0469421 -0.0458657 -0.043058 0 0 0 
0.05885 -0.0404895 -0.0287101 0 0 0 
0.0501925 -0.0406137 -0.0411593 0 0 0 
0.0454305 -0.042421 -0.0470798 0 0 0 
0.0542032 -0.0324059 -0.0397375 0 0 0 
0.0718602 -0.00100873 -0.0309518 0 0 0 
0.0355454 -0.0480472 -0.0583701 0 0 0 
0.0579533 -0.0192955 -0.0413061 0 0 0 
0.044798 -0.0457681 -0.0462097 0 0 0 
0.0655106 -0.0135826 -0.0334271 0 0 0 
0.0650785 -0.0252371 -0.027838 0 0 0 
0.0512388 -0.0395437 -0.0402173 0 0 0 
0.062597 -0.0134895 -0.0376886 0 0 0 
0.0587235 -0.0275106 -0.0358128 0 0 0 
0.0625536 -0.0261958 -0.0309769 0 0 0 
0.0550192 -0.0465353 -0.0310246 0 0 0 
0.0460497 -0.0381943 -0.0484382 0 0 0 
0.0497059 -0.0343739 0.0432965 0 0 0 
0.0537066 -0.0290551 0.0401681 0 0 0 
0.0519795 -0.0405789 0.0362617 0 0 0 
0.0493556 -0.014248 0.0553015 0 0 0 
0.0424627 -0.0461854 0.0477175 0 0 0 
0.0526012 -0.01809 0.0481166 0 0 0 
0.0470132 -0.0329267 0.048266 0 0 0 
0.057175 -0.0387889 0.0292837 0 0 0 
0.0610525 -0.0382555 0.0236187 0 0 0 
0.0538366 -0.00115151 0.0558646 0 0 0 
0.048795 -0.0350259 0.0443274 0 0 0 
0.0510581 -0.0290233 0.0442632 0 0 0 
0.0511861 -0.00321581 0.0587687 0 0 0 
0.0594492 -0.0348438 0.0280305 0 0 0 
0.0509768 -0.0418825 0.0370626 0 0 0 
0.054405 -0.00629884 0.0520572 0 0 0 
0.0631681 -0.0428583 0.0177399 0 0 0 
0.0522832 -0.000190409 0.0588034 0 0 0 
0.0668474 -0.0286444 0.0199805 0 0 0 
0.0652778 -0.0164996 0.0292859 0 0 0 
0.0619067 -0.0016878 0.0429195 0 0 0 
0.0670015 -0.0296308 0.0191831 0 0 0 
0.0620495 -0.0288322 0.0274001 0 0 0 
0.0660163 -0.0204421 0.0259059 0 0 0 
0.0636648 -0.0151214 0.0325923 0 0 0 
0.063003 -0.0354783 0.0221595 0 0 0 
0.065532 -0.0457316 0.0124153 0 0 0 
0.068212 -0.0191802 0.0231732 0 0 0 
0.0725414 -0.01415 0.019217 0 0 0 
0.0675472 -0.0289942 0.0186858 0 0 0 
0.0635613 -0.0225189 0.0285863 0 0 0 
0.0637701 -0.0131523 0.0335367 0 0 0 
-0.0595811 -0.0410589 0.0276211 0 0 0 
-0.0556754 -0.0404459 0.034168 0 0 0 
-0.0585402 -0.0362923 0.0311805 0 0 0 
-0.05918 -0.038167 0.0294086 0 0 0 
-0.0636955 -0.0382581 0.0220831 0 0 0 
-0.0540954 -0.0200983 0.0447395 0 0 0 
-0.0517071 -0.0164092 0.0500491 0 0 0 
-0.0643559 -0.0160951 0.0297535 0 0 0 
-0.0631298 -0.0160069 0.0317676 0 0 0 
-0.0557909 -0.0266162 0.039433 0 0 0 
-0.0508258 -0.0348786 0.0441914 0 0 0 
-0.0688387 -0.0201586 0.020915 0 0 0 
-0.0509107 -0.0152167 0.0518049 0 0 0 
-0.0545214 -0.0197949 0.0441714 0 0 0 
-0.072019 -0.0185826 0.0164022 0 0 0 
-0.0630647 -0.0194326 0.0305224 0 0 0 
-0.062998 -0.0177357 0.0312989 0 0 0 
-0.0630126 -0.0158419 0.0320198 0 0 0 
-0.0568845 0.00417631 0.0457877 0 0 0 
-0.0641463 -0.0131899 0.0306717 0 0 0 
-0.0578063 0.00411791 0.0442738 0 0 0 
-0.0598953 -0.00723016 0.0387269 0 0 0 
-0.057889 -0.00583703 0.0422608 0 0 0 
-0.049516 -0.007019 0.0556891 0 0 0 
-0.0502374 -0.0132964 0.0533287 0 0 0 
-0.0674908 -0.00810117 0.026179 0 0 0 
-0.0572849 0.00591129 0.0454622 0 0 0 
-0.0486388 -0.00806409 0.0569221 0 0 0 
-0.058313 -0.0150925 0.0398233 0 0 0 
-0.0329553 0.0690833 0.0314161 0 0 0 
-0.0143318 0.0620915 0.0457719 0 0 0 
-0.0138404 0.0620838 0.045845 0 0 0 
-0.0201783 0.0659945 0.0383123 0 0 0 
-0.00157175 0.0650726 0.0418087 0 0 0 
-0.0224875 0.0691579 0.0324315 0 0 0 
0.0133885 0.0632919 0.0464689 0 0 0 
-0.000942905 0.0671536 0.0381383 0 0 0 
-0.0150113 0.0656492 0.039457 0 0 0 
-0.0139172 0.0668746 0.0373665 0 0 0 
0.00389311 0.0632517 0.0456102 0 0 0 
0.00506642 0.0624206 0.0472157 0 0 0 
-0.00959965 0.0668914 0.0377598 0 0 0 
0.00354837 0.0639397 0.0443425 0 0 0 
0.00218967 0.0640351 0.0440381 0 0 0 
-0.0193863 0.0762302 0.0206165 0 0 0 
0.0229859 0.0695553 0.0361905 0 0 0 
-0.0278311 0.0741518 0.0232617 0 0 0 
-0.0208944 0.0771337 0.0189391 0 0 0 
-0.00683706 0.0738606 0.0258914 0 0 0 
-0.00840645 0.0747936 0.024158 0 0 0 
0.00961368 0.0724775 0.0298998 0 0 0 
-0.00177583 0.0715947 0.0302286 0 0 0 
-0.0132934 0.0721959 0.0280413 0 0 0 
-0.00541756 0.0807431 0.0144281 0 0 0 
-0.0191016 0.0735229 0.0252116 0 0 0 
0.00541986 0.0791105 0.0182856 0 0 0 
-0.0111792 -0.049 -0.0607976 0 0 0 
-0.00975914 -0.049 -0.0592817 0 0 0 
0.0130907 -0.049 -0.0640153 0 0 0 
-0.0195872 -0.049 -0.0587079 0 0 0 
-0.00266234 -0.049 -0.0643864 0 0 0 
-0.0646273 -0.0350638 0.00373028 0 0 0 
-0.06952 -0.0244483 0.00444564 0 0 0 
-0.0593416 -0.0445286 -0.0158225 0 0 0 
-0.0616845 -0.0404807 -0.00577327 0 0 0 
-0.0604291 -0.0454441 0.0150336 0 0 0 
-0.0670202 -0.029599 0.00152286 0 0 0 
-0.0618542 -0.042795 0.0193925 0 0 0 
-0.0590958 -0.0442856 -0.0231322 0 0 0 
-0.0693733 -0.025366 0.0100441 0 0 0 
-0.0679083 -0.0294362 0.018185 0 0 0 
-0.0694149 -0.025422 0.0114209 0 0 0 
-0.0582271 -0.0483917 -0.00244148 0 0 0 
-0.0613203 -0.0397451 -0.0201274 0 0 0 
-0.0647689 -0.0350137 0.0061617 0 0 0 
-0.0654315 -0.0317154 -0.00995933 0 0 0 
-0.0749779 -0.00751873 -0.00243991 0 0 0 
-0.0656408 -0.0301192 -0.013256 0 0 0 
-0.0719848 -0.0135325 -0.00990563 0 0 0 
-0.0711648 -0.0160657 -0.00907459 0 0 0 
-0.0725153 -0.0171384 0.0065917 0 0 0 
-0.0699661 -0.0182557 -0.0127738 0 0 0 
-0.0755604 -0.00729637 0.00209266 0 0 0 
-0.0647275 -0.0304334 -0.0204737 0 0 0 
-0.0746916 -0.00734452 -0.00558838 0 0 0 
0.0651097 0.0199941 -0.0347062 0 0 0 
0.0724019 0.00211497 -0.0273831 0 0 0 
0.0601592 0.0327781 -0.0376152 0 0 0 
0.0711935 0.00616202 -0.0251365 0 0 0 
0.0634476 0.0258028 -0.0308431 0 0 0 
0.0720497 0.00688175 -0.0152796 0 0 0 
0.0654333 0.0191528 -0.0345336 0 0 0 
0.0663552 0.0168242 -0.0338266 0 0 0 
0.0675243 0.0177968 -0.0203996 0 0 0 
0.0684484 0.01289 -0.0279012 0 0 0 
0.0604769 0.0372071 -0.0209718 0 0 0 
0.0709913 0.0133096 -0.0042274 0 0 0 
0.0718438 0.0112647 -0.00320563 0 0 0 
0.0741612 0.006649 0.00252186 0 0 0 
0.0604238 0.0392257 -0.0151186 0 0 0 
0.0597285 0.042483 -0.0109791 0 0 0 
0.0680743 0.0212775 -0.0046867 0 0 0 
0.0566472 0.048072 -0.0203112 0 0 0 
0.067057 0.0238264 -0.00556654 0 0 0 
0.0582206 0.0387879 -0.0356631 0 0 0 
0.0630699 0.0313061 -0.0168663 0 0 0 
0.0605558 0.0344389 -0.0289458 0 0 0 
0.064228 0.028754 -0.0147716 0 0 0 
0.0587178 0.0432987 -0.0172239 0 0 0 
0.0720269 0.0109659 -0.00254706 0 0 0 
0.060653 0.0409955 -0.00758748 0 0 0 
0.0655152 0.0264392 -0.0108108 0 0 0 
0.0679415 0.0244072 0.00402008 0 0 0 
0.0624516 0.0372614 -0.00358533 0 0 0 
0.0723665 0.0116817 0.00266126 0 0 0 
0.0549761 0.0602575 0.00345368 0 0 0 
0.0543619 0.0606231 -0.00079351 0 0 0 
0.0604891 0.0446565 0.00256337 0 0 0 
0.0640216 0.0351124 0.00342511 0 0 0 
0.0580827 0.0478737 -0.00842534 0 0 0 
0.0689826 0.0210221 0.00246223 0 0 0 
0.0628671 0.0354465 -0.00567604 0 0 0 
0.0638892 0.0388567 0.014634 0 0 0 
0.0618179 0.0436446 0.0113598 0 0 0 
0.0616247 0.0447075 0.013134 0 0 0 
0.0719898 0.0139336 0.00652764 0 0 0 
-0.0535415 0.0367481 -0.0378574 0 0 0 
-0.0517842 0.0383034 -0.04112 0 0 0 
-0.0551772 0.0120793 -0.0511888 0 0 0 
-0.0506748 0.0326248 -0.0478747 0 0 0 
-0.052172 0.0392974 -0.0394577 0 0 0 
-0.0586402 0.0182438 -0.0389422 0 0 0 
-0.0550956 0.036543 -0.0342877 0 0 0 
-0.0565511 0.0175587 -0.0441013 0 0 0 
-0.0561265 0.0133934 -0.0479238 0 0 0 
-0.0631278 0.0136059 -0.0304276 0 0 0 
-0.0714405 0.00836168 -0.0118389 0 0 0 
-0.0596503 0.0206088 -0.0345036 0 0 0 
-0.0622381 0.0296095 -0.0205356 0 0 0 
-0.0599084 0.0152569 -0.0379191 0 0 0 
-0.0730946 0.00351193 -0.0110687 0 0 0 
-0.0719397 -0.000755206 -0.0174952 0 0 0 
-0.0563334 0.0362715 -0.0314797 0 0 0 
-0.0577675 0.0333398 -0.0298325 0 0 0 
-0.0632824 0.00592557 -0.0359162 0 0 0 
-0.0664231 0.0153093 -0.0201487 0 0 0 
-0.0596412 0.0308592 -0.0266415 0 0 0 
-0.0692473 0.0143281 -0.0132173 0 0 0 
-0.0663448 0.000882247 -0.031462 0 0 0 
-0.0621032 0.0277134 -0.0223617 0 0 0 
-0.0631025 0.0164093 -0.0283395 0 0 0 
-0.0702664 0.0102569 -0.0135763 0 0 0 
-0.0653822 0.0380753 -0.00498352 0 0 0 
-0.0677251 0.0292502 -0.00553741 0 0 0 
-0.0643095 0.0379451 -0.00809003 0 0 0 
-0.0682849 0.0264378 -0.00623694 0 0 0 
-0.0678757 0.0223775 -0.010653 0 0 0 
-0.0573344 0.0433202 -0.0232776 0 0 0 
-0.0602893 0.039828 -0.0178227 0 0 0 
-0.0630464 0.0363995 -0.0128697 0 0 0 
-0.0717866 0.0121248 -0.00796939 0 0 0 
-0.0221763 0.0421927 -0.0607337 0 0 0 
-0.00256657 0.0660751 -0.0497811 0 0 0 
-0.00876992 0.0531852 -0.0555324 0 0 0 
0.013433 0.0472667 -0.0573364 0 0 0 
0.0179307 0.0394968 -0.0605394 0 0 0 
-0.0151223 0.0458976 -0.0588946 0 0 0 
0.0174974 0.0369563 -0.0616511 0 0 0 
-0.00172301 0.0365689 -0.0624693 0 0 0 
0.0105274 0.0461397 -0.0579214 0 0 0 
-0.000385029 0.0525203 -0.0555356 0 0 0 
0.00500872 0.0437508 -0.0591399 0 0 0 
0.0220362 0.0421136 -0.0592703 0 0 0 
0.0280168 0.0355112 -0.061919 0 0 0 
0.00690865 0.0440825 -0.0589324 0 0 0 
0.00946096 0.0363501 -0.062185 0 0 0 
-0.000178319 0.0557179 -0.0541477 0 0 0 
0.0128767 0.0564124 -0.0534058 0 0 0 
0.00038131 0.0438549 -0.0592517 0 0 0 
-0.0119939 0.0365744 -0.0628166 0 0 0 
0.0192489 0.0160935 -0.0706971 0 0 0 
0.00685499 0.0263927 -0.0666193 0 0 0 
0.0175218 0.0238799 -0.0673494 0 0 0 
-0.0197714 0.0361672 -0.0632642 0 0 0 
0.0337491 0.0256173 -0.066027 0 0 0 
0.00993652 0.028502 -0.0655895 0 0 0 
0.0216172 0.019246 -0.0692354 0 0 0 
0.00391706 0.028896 -0.0656256 0 0 0 
0.027944 0.0145664 -0.0710642 0 0 0 
0.0106706 0.0188749 -0.0697771 0 0 0 
0.00371623 0.0221095 -0.0686048 0 0 0 
-0.00360536 0.0159039 -0.07166 0 0 0 
0.0144076 0.0152407 -0.0712481 0 0 0 
-0.0114049 0.0267586 -0.0671255 0 0 0 
-0.0138642 0.0202202 -0.0701381 0 0 0 
-0.0093749 0.0215952 -0.0693485 0 0 0 
-0.015597 0.0277784 -0.0668354 0 0 0 
0.021596 0.00968809 -0.073442 0 0 0 
0.00492553 0.0141167 -0.072122 0 0 0 
-0.0159997 0.0301773 -0.0657813 0 0 0 
0.0320309 0.0682198 0.0315091 0 0 0 
0.0295211 0.0688676 0.0319924 0 0 0 
0.00790308 0.0788932 0.0185435 0 0 0 
0.0278633 0.0712428 0.015868 0 0 0 
0.029944 0.071015 0.00657395 0 0 0 
0.0393051 0.0663644 0.015242 0 0 0 
0.0320863 0.0697642 0.0111543 0 0 0 
0.0266797 0.072189 0.00978473 0 0 0 
0.0272279 0.0721097 0.00760406 0 0 0 
0.0413889 0.065868 0.00967045 0 0 0 
0.0356486 0.0676689 0.0189859 0 0 0 
0.0333814 0.068596 0.0196611 0 0 0 
0.031006 0.0702879 0.0103349 0 0 0 
0.0419906 0.065513 0.0110076 0 0 0 
0.0265857 0.0715043 0.0198815 0 0 0 
0.0334217 0.070428 -0.000393433 0 0 0 
0.0275725 0.0721128 0.00593351 0 0 0 
0.0550035 0.0603315 0.00588848 0 0 0 
0.0444353 0.0659382 -0.00224677 0 0 0 
0.0463678 0.064951 -0.00104948 0 0 0 
0.0459722 0.0656989 -0.00546213 0 0 0 
0.0423254 0.0668849 -0.00255291 0 0 0 
0.0493559 0.0648833 -0.010336 0 0 0 
0.028011 0.073138 -0.00333305 0 0 0 
0.0517773 0.0628017 -0.00238714 0 0 0 
0.0280829 0.0736246 -0.00905874 0 0 0 
0.0327331 0.07214 -0.0159146 0 0 0 
0.020487 0.0767493 -0.0104108 0 0 0 
0.010475 0.0803016 -0.00203398 0 0 0 
0.00500005 0.0824045 -0.000329033 0 0 0 
0.00182683 0.0834647 0.00350506 0 0 0 
-0.035223 0.0692258 -0.0213532 0 0 0 
-0.0397962 0.0678259 0.00241338 0 0 0 
-0.0261282 0.07363 -0.0249029 0 0 0 
-0.0294904 0.0722497 -0.0169034 0 0 0 
-0.0319386 0.0711105 -0.0146967 0 0 0 
-0.0406042 0.0671235 -0.00566306 0 0 0 
-0.026328 0.0741961 -0.00693979 0 0 0 
-0.023126 0.0752797 -0.0207925 0 0 0 
-0.0311887 0.0723731 0.00928365 0 0 0 
-0.032363 0.0721692 0.019586 0 0 0 
-0.0280137 0.0731803 -0.0116671 0 0 0 
-0.0251828 0.0750501 0.000693207 0 0 0 
-0.0272511 0.0747785 0.0211989 0 0 0 
-0.0245751 0.0755465 0.00591009 0 0 0 
-0.0130741 0.0811708 0.00289886 0 0 0 
-0.0257462 0.0750247 0.00759125 0 0 0 
-0.0205309 0.0768089 -0.0144506 0 0 0 
-0.0172285 0.0790912 0.00269077 0 0 0 
-0.0171381 0.0785003 -0.0144706 0 0 0 
-0.0220388 0.0760444 -0.0147873 0 0 0 
-0.0181162 0.0785783 0.000798881 0 0 0 
-0.0168706 0.0784606 -0.0191411 0 0 0 
0.0304865 0.0108945 -0.0714447 0 0 0 
0.0451134 0.0246355 -0.0548293 0 0 0 
0.0466658 0.0307051 -0.0523985 0 0 0 
0.0378227 0.021933 -0.0625111 0 0 0 
0.0400182 0.0221391 -0.0602857 0 0 0 
0.0535282 0.020974 -0.0469443 0 0 0 
0.0508429 0.00514723 -0.0519203 0 0 0 
0.0569231 0.00604742 -0.0457098 0 0 0 
0.0563905 0.0312892 -0.0425892 0 0 0 
0.06144 0.0186276 -0.0393722 0 0 0 
0.0632267 0.02022 -0.0373551 0 0 0 
0.052067 0.0185211 -0.0487605 0 0 0 
0.0546022 0.00848301 -0.0476782 0 0 0 
0.046407 0.0213759 -0.0540073 0 0 0 
0.0564135 0.0327424 -0.0423559 0 0 0 
0.0614726 0.0232384 -0.0386723 0 0 0 
0.0674308 0.00203757 -0.0357825 0 0 0 
0.0520609 0.00542783 -0.0506616 0 0 0 
0.0529482 0.00722325 -0.0495145 0 0 0 
0.0457097 -0.0160753 -0.060123 0 0 0 
0.0547751 -0.00443192 -0.0493737 0 0 0 
0.0526001 0.00167504 -0.0506654 0 0 0 
0.0533944 -0.0111486 -0.0517259 0 0 0 
0.0628743 0.00142472 -0.0404276 0 0 0 
0.0504146 0.000210478 -0.0530626 0 0 0 
0.0539342 0.0035245 -0.0490638 0 0 0 
0.0536413 -0.00236489 -0.0502085 0 0 0 
0.0480624 0.00386001 -0.0548869 0 0 0 
0.0521435 0.000670819 -0.0512672 0 0 0 
0.0570094 0.00272648 -0.046104 0 0 0 
0.0624707 -0.00536952 -0.041814 0 0 0 
0.0260141 0.00745421 -0.0738502 0 0 0 
0.0264014 0.00277531 -0.0727775 0 0 0 
0.0234333 0.00114672 -0.0729069 0 0 0 
0.0238933 -0.00670407 -0.0711377 0 0 0 
0.0103285 0.00378792 -0.0756007 0 0 0 
0.0311944 -0.00075183 -0.0712394 0 0 0 
0.00798165 0.00173772 -0.0755384 0 0 0 
0.034237 -0.0428529 -0.0625009 0 0 0 
-0.00257482 5.06938e-05 -0.0769277 0 0 0 
0.0165352 -0.0208445 -0.0696905 0 0 0 
0.0113224 -0.0116942 -0.0722964 0 0 0 
0.0302763 -0.0275742 -0.0660053 0 0 0 
0.0140638 -0.0220204 -0.0699164 0 0 0 
0.0243339 -0.0240718 -0.0677074 0 0 0 
0.0177455 -0.022863 -0.0691049 0 0 0 
0.018014 -0.0271303 -0.0682757 0 0 0 
0.0112217 -0.0076361 -0.0730573 0 0 0 
0.0314019 -0.0298295 -0.0653915 0 0 0 
0.00388112 -0.027381 -0.0703913 0 0 0 
0.0251087 -0.0397866 -0.0646617 0 0 0 
0.00910505 -0.031124 -0.0688412 0 0 0 
0.0159831 -0.0295148 -0.0681276 0 0 0 
0.0128115 -0.046593 -0.0651398 0 0 0 
0.0299189 -0.044998 -0.0628761 0 0 0 
0.0107701 -0.0475868 -0.0652468 0 0 0 
-0.0017653 -0.0422018 -0.0682362 0 0 0 
0.01301 -0.040845 -0.0662768 0 0 0 
0.0143437 -0.0405428 -0.0661365 0 0 0 
-0.00399551 -0.0141588 -0.0742672 0 0 0 
-0.00251545 -0.0130663 -0.0742652 0 0 0 
0.00385909 -0.0146676 -0.0729759 0 0 0 
-0.00496624 -0.0224613 -0.072704 0 0 0 
-0.00487436 -0.029064 -0.071347 0 0 0 
-0.00549924 -0.025348 -0.0721845 0 0 0 
-0.00598163 0.0792233 -0.014977 0 0 0 
-0.00484711 0.0837525 -0.00030189 0 0 0 
-0.0102827 0.0723464 -0.0379732 0 0 0 
-0.00711717 0.0824765 -0.00497681 0 0 0 
-0.0117894 0.0749687 -0.0300764 0 0 0 
-0.0148873 0.0788622 -0.0185901 0 0 0 
-0.000129942 0.0714485 -0.0376093 0 0 0 
0.00733741 0.0724657 -0.0314904 0 0 0 
-0.000949859 0.0779727 -0.0172188 0 0 0 
0.0276904 0.0731112 -0.0215631 0 0 0 
0.00362469 0.0704739 -0.0392494 0 0 0 
0.00927236 0.0736304 -0.0270445 0 0 0 
0.00872419 0.0769693 -0.0166591 0 0 0 
0.0195377 0.0734995 -0.0234864 0 0 0 
-0.00303085 0.077808 -0.0185471 0 0 0 
0.0126269 0.0735607 -0.0259673 0 0 0 
0.0072805 0.0814344 -0.00304563 0 0 0 
0.00849119 0.0701327 -0.0384487 0 0 0 
0.00981078 0.0754455 -0.021075 0 0 0 
-0.00299117 0.0684343 -0.0482843 0 0 0 
0.0118825 0.0691948 -0.0407196 0 0 0 
0.0278274 0.0724742 -0.0235742 0 0 0 
0.072861 -0.000348595 -0.0266578 0 0 0 
0.0685957 -0.0218042 -0.0138611 0 0 0 
0.0682656 -0.0200618 -0.0194584 0 0 0 
0.0674635 -0.0209988 -0.0230487 0 0 0 
0.072981 -0.0120906 -0.00311885 0 0 0 
0.064228 -0.0351471 -0.0174594 0 0 0 
0.073631 -0.00796188 -0.00673184 0 0 0 
0.0683361 -0.0233158 -0.012684 0 0 0 
0.0664004 -0.0246797 -0.0230859 0 0 0 
0.0709294 -0.0118376 -0.0174314 0 0 0 
0.070107 -0.0157059 -0.0154842 0 0 0 
0.0631311 -0.0371938 -0.0208876 0 0 0 
0.0764596 -0.00320753 0.0031222 0 0 0 
0.0750861 -0.0129012 0.0130727 0 0 0 
0.0741852 -0.00999563 0.000963704 0 0 0 
0.0672554 -0.0287765 -0.00933825 0 0 0 
0.0625136 -0.0409137 -0.0178248 0 0 0 
0.0666879 -0.0299912 -0.0108332 0 0 0 
0.0695232 -0.0239365 -0.00333611 0 0 0 
0.0635565 -0.0401827 -0.0120848 0 0 0 
0.0612508 -0.0453302 -0.0177276 0 0 0 
0.0693621 -0.0286325 0.00490065 0 0 0 
0.0691649 -0.0273236 0.000974315 0 0 0 
0.0612347 -0.0449981 -0.0184919 0 0 0 
0.0632415 -0.0444745 -0.0057908 0 0 0 
0.0686547 -0.0342332 0.0110866 0 0 0 
0.0627607 -0.0475402 -0.00304572 0 0 0 
0.0637887 -0.046963 0.00285199 0 0 0 
0.0640912 -0.0423684 -0.0041234 0 0 0 
-0.0435611 -0.0335464 0.0517422 0 0 0 
-0.0423211 -0.0246045 0.0564013 0 0 0 
-0.0450646 -0.0409494 0.0476091 0 0 0 
-0.0308062 -0.0420904 0.0553553 0 0 0 
-0.0385195 -0.0423007 0.0508001 0 0 0 
-0.036024 -0.037279 0.0544575 0 0 0 
-0.0413888 -0.0441811 0.0483112 0 0 0 
-0.00810568 0.00476195 -0.0757576 0 0 0 
-0.0247201 0.0328479 -0.0637155 0 0 0 
-0.0223555 0.0261102 -0.0658546 0 0 0 
-0.0334622 0.026646 -0.0606346 0 0 0 
-0.033517 0.0278078 -0.060429 0 0 0 
-0.0209123 0.0252311 -0.0666585 0 0 0 
-0.0278556 0.0302362 -0.0626706 0 0 0 
-0.0240682 0.0147409 -0.0668266 0 0 0 
-0.0083286 -0.00313712 -0.0767297 0 0 0 
-0.0104758 0.000596691 -0.075203 0 0 0 
-0.00560442 0.00266882 -0.0772329 0 0 0 
-0.0280646 0.0124357 -0.0652466 0 0 0 
-0.0165008 0.00802174 -0.0713342 0 0 0 
-0.0274803 0.0111726 -0.0656956 0 0 0 
-0.0183431 0.000224618 -0.0715203 0 0 0 
-0.0378577 0.0116959 -0.0607122 0 0 0 
-0.0257467 -0.00651866 -0.0689459 0 0 0 
-0.0298735 -0.00643933 -0.0669856 0 0 0 
-0.0284673 -0.00578068 -0.067559 0 0 0 
-0.0294602 0.0030411 -0.0658729 0 0 0 
-0.028467 0.00627023 -0.0658965 0 0 0 
-0.0469146 0.0274254 -0.054264 0 0 0 
-0.0319525 -0.00506898 -0.0658145 0 0 0 
-0.0320052 -0.00313677 -0.065523 0 0 0 
-0.0471778 0.0127319 -0.0560906 0 0 0 
-0.0395896 -0.000806087 -0.0616071 0 0 0 
-0.0397669 -0.000451378 -0.0614732 0 0 0 
-0.0508668 0.0121783 -0.0543443 0 0 0 
-0.0500856 0.0222736 -0.0534057 0 0 0 
-0.0560641 0.00512457 -0.0527068 0 0 0 
-0.0168628 -0.048454 0.0554109 0 0 0 
-0.0211597 -0.0485655 0.0499188 0 0 0 
0.0208139 -0.048578 0.0489816 0 0 0 
-0.0145363 -0.0485103 0.0526014 0 0 0 
0.000778135 -0.0485377 0.0511279 0 0 0 
-0.0250947 -0.0486613 0.0452002 0 0 0 
-0.0262457 -0.0486795 0.0443097 0 0 0 
0.0322349 -0.048548 0.0503798 0 0 0 
-0.0249049 -0.0486658 0.0426458 0 0 0 
-0.0303689 -0.048634 0.0376264 0 0 0 
0.0193047 -0.0485675 0.0457625 0 0 0 
-0.0359438 -0.0486964 0.0425017 0 0 0 
-0.0402968 -0.0486197 0.0330826 0 0 0 
-0.0373689 -0.0486524 0.0374235 0 0 0 
-0.0358406 -0.0486092 0.0333333 0 0 0 
-0.0412221 -0.0486084 0.0316125 0 0 0 
0.0121546 -0.0485755 0.0444306 0 0 0 
-0.0231941 -0.0486032 0.036567 0 0 0 
-0.0108885 -0.0486246 0.029512 0 0 0 
-0.055539 -0.0488184 -0.00828429 0 0 0 
-0.01942 -0.048595 0.0324711 0 0 0 
-0.0544622 -0.04875 0.00237332 0 0 0 
-0.023721 -0.0486996 0.0157015 0 0 0 
-0.0530488 -0.0487141 0.00811667 0 0 0 
-0.0499072 -0.0489701 -0.0304223 0 0 0 
-0.0359933 -0.0487131 0.0113999 0 0 0 
0.0235868 -0.0485732 0.0436773 0 0 0 
0.0138928 -0.0486109 0.0361458 0 0 0 
-0.0321237 -0.0485891 0.0310471 0 0 0 
-0.0209043 -0.0487327 0.0111576 0 0 0 
-0.0538225 -0.0489574 -0.0292036 0 0 0 
-0.0550714 -0.0489726 -0.0317599 0 0 0 
-0.053861 -0.048828 -0.0094328 0 0 0 
-0.0366233 -0.0488938 -0.0163427 0 0 0 
0.0373902 -0.0485602 0.048195 0 0 0 
-0.0500097 -0.0488746 -0.0158569 0 0 0 
-0.0203957 -0.0487036 0.0156983 0 0 0 
-0.0509218 -0.0487446 0.00385247 0 0 0 
-0.00580014 -0.0485805 0.0371902 0 0 0 
-0.0232388 -0.0488349 -0.00488241 0 0 0 
-0.0374861 -0.0487761 0.00149732 0 0 0 
-0.0475604 -0.0488676 -0.0143333 0 0 0 
0.00576944 -0.0486293 0.0318492 0 0 0 
-0.0312394 -0.0486443 0.0227761 0 0 0 
0.00419698 -0.0485957 0.0366987 0 0 0 
-0.0445067 -0.0487746 0.000429001 0 0 0 
-0.0205496 -0.0486801 0.0192575 0 0 0 
0.00450951 -0.0485709 0.0405394 0 0 0 
-0.0565674 -0.0488576 -0.0144509 0 0 0 
-0.055771 -0.0487688 -0.000734478 0 0 0 
-0.0301833 -0.0487538 0.0062313 0 0 0 
-0.0223789 -0.0487803 0.00362053 0 0 0 
0.00483767 -0.0486618 0.0267101 0 0 0 
-0.0551815 -0.0489065 -0.0216723 0 0 0 
-0.0401531 -0.0486833 0.0151843 0 0 0 
-0.0543645 -0.0486048 0.0245779 0 0 0 
-0.0142407 -0.0487571 0.00865788 0 0 0 
-0.0151107 -0.0487757 0.00565359 0 0 0 
0.0210043 -0.0486019 0.0388154 0 0 0 
-0.038205 -0.0489144 -0.0197798 0 0 0 
-0.0386982 -0.0488059 -0.00328756 0 0 0 
0.0185605 -0.0486526 0.0300689 0 0 0 
-0.0281318 -0.0488862 -0.0176026 0 0 0 
-0.0302329 -0.0488879 -0.0164411 0 0 0 
-0.000935739 -0.0487818 -0.00169007 0 0 0 
-0.00819158 -0.0487851 0.00325991 0 0 0 
-0.0428168 -0.0489502 -0.0290279 0 0 0 
-0.0298775 -0.0488804 -0.0139354 0 0 0 
-0.030292 -0.0489415 -0.0364397 0 0 0 
-0.000948019 -0.0487623 0.00562001 0 0 0 
-0.0277796 -0.0488885 -0.0187644 0 0 0 
0.0142158 -0.0486916 0.0191467 0 0 0 
0.0195467 -0.0486464 0.0315438 0 0 0 
0.000338336 -0.0487732 0.000447251 0 0 0 
-0.0174135 -0.0488584 -0.0163329 0 0 0 
-0.0531277 -0.0489915 -0.0357024 0 0 0 
-0.0220369 -0.0488579 -0.0121913 0 0 0 
0.00302947 -0.0487385 0.0111452 0 0 0 
-0.0342784 -0.0489243 -0.0266268 0 0 0 
0.0106172 -0.0486919 0.0221105 0 0 0 
-0.0196712 -0.0488841 -0.0240068 0 0 0 
-0.0556499 -0.0489971 -0.0356247 0 0 0 
-0.0368335 -0.0489643 -0.039407 0 0 0 
-0.0268622 -0.0489181 -0.0306325 0 0 0 
-0.0299626 -0.0488805 -0.0139077 0 0 0 
0.0325369 -0.0486744 0.0199205 0 0 0 
0.012048 -0.0489894 -0.0566144 0 0 0 
0.0330858 -0.0487373 0.00412284 0 0 0 
-0.0139246 -0.0489975 -0.0557489 0 0 0 
0.0278369 -0.0487801 -0.00599489 0 0 0 
-0.00738271 -0.0488742 -0.025616 0 0 0 
0.00794244 -0.0487418 0.00580999 0 0 0 
0.00379331 -0.0489933 -0.0566746 0 0 0 
-0.00160817 -0.0488285 -0.0148344 0 0 0 
-0.000350485 -0.0488122 -0.0108999 0 0 0 
0.0166344 -0.0487021 0.0147639 0 0 0 
0.00198481 -0.0489571 -0.0474212 0 0 0 
0.0358818 -0.0485824 0.0425606 0 0 0 
0.0320105 -0.0486505 0.0259719 0 0 0 
0.0386765 -0.0486243 0.0317856 0 0 0 
0.030854 -0.0489674 -0.0532069 0 0 0 
0.0223719 -0.0487939 -0.00885669 0 0 0 
-0.00254764 -0.0488266 -0.0142568 0 0 0 
0.0156871 -0.0489576 -0.0490763 0 0 0 
-0.00670311 -0.0489001 -0.0321829 0 0 0 
0.0117747 -0.0487323 0.00775703 0 0 0 
0.00389854 -0.0488574 -0.0226818 0 0 0 
0.0204357 -0.0487069 0.0131431 0 0 0 
0.0247998 -0.048998 -0.0601984 0 0 0 
-0.019045 -0.0489652 -0.0470967 0 0 0 
0.0132758 -0.0488885 -0.0314936 0 0 0 
0.0325446 -0.0487394 0.00365465 0 0 0 
0.00834381 -0.0487694 -0.00114699 0 0 0 
0.0250196 -0.0489138 -0.039136 0 0 0 
0.0358444 -0.0485797 0.0432383 0 0 0 
0.00459222 -0.0488999 -0.0333811 0 0 0 
-0.0192625 -0.0489512 -0.0435687 0 0 0 
-0.000643191 -0.0489423 -0.0434045 0 0 0 
-0.0260441 -0.0489994 -0.0548742 0 0 0 
-0.0104503 -0.0488617 -0.0221393 0 0 0 
0.0382451 -0.0486479 0.0259166 0 0 0 
0.019098 -0.0489198 -0.0399752 0 0 0 
0.00982058 -0.0487507 0.00337009 0 0 0 
0.0301987 -0.0489066 -0.0379173 0 0 0 
-0.00046233 -0.0489734 -0.0512205 0 0 0 
0.0175338 -0.0487861 -0.00636372 0 0 0 
-0.00335029 -0.048899 -0.0322851 0 0 0 
0.0173594 -0.0489714 -0.0527109 0 0 0 
0.000908211 -0.0489646 -0.0491714 0 0 0 
-0.000618695 -0.04888 -0.0278342 0 0 0 
0.0213429 -0.0488897 -0.0327144 0 0 0 
0.0119591 -0.0487702 -0.00174264 0 0 0 
0.0250115 -0.0486423 0.0287888 0 0 0 
-0.0198727 -0.0489682 -0.0477491 0 0 0 
0.0207905 -0.0486943 0.0162572 0 0 0 
-0.0175461 -0.0489924 -0.0540628 0 0 0 
0.0131978 -0.048721 0.0104281 0 0 0 
0.0303191 -0.0489534 -0.0496407 0 0 0 
0.00768712 -0.0488085 -0.0108653 0 0 0 
0.0420673 -0.0486218 0.0370523 0 0 0 
0.0490042 -0.0488534 -0.00527385 0 0 0 
0.0509954 -0.0489714 -0.0290645 0 0 0 
0.0494897 -0.0487995 0.00761214 0 0 0 
0.0452603 -0.0489325 -0.028562 0 0 0 
0.0433701 -0.0487614 0.00737236 0 0 0 
0.0378232 -0.0489002 -0.0320066 0 0 0 
0.0385657 -0.0488024 -0.00884401 0 0 0 
0.0516253 -0.0488805 -0.00761849 0 0 0 
0.0353149 -0.0489079 -0.0373749 0 0 0 
0.0425855 -0.0488152 -0.00591028 0 0 0 
0.0365283 -0.0488439 -0.021161 0 0 0 
0.0380596 -0.0487797 -0.00443995 0 0 0 
0.047126 -0.0489345 -0.0263191 0 0 0 
0.036547 -0.0488212 -0.016011 0 0 0 
0.0399279 -0.048618 0.0348051 0 0 0 
0.0390064 -0.0488036 -0.00846471 0 0 0 
0.0403011 -0.0487736 0.000182496 0 0 0 
0.0401132 -0.048669 0.0235464 0 0 0 
0.0550169 -0.0488897 -0.00255555 0 0 0 
0.0418923 -0.0485919 0.0442449 0 0 0 
0.0432775 -0.0486264 0.0378644 0 0 0 
0.0567721 -0.0488949 0.00708111 0 0 0 
0.0510569 -0.0487962 0.0132328 0 0 0 
0.0580253 -0.0489147 0.00656803 0 0 0 
0.0609588 -0.0489625 0.00470792 0 0 0 
-0.0555939 0.0260665 0.041474 0 0 0 
-0.0626964 0.0353877 0.018901 0 0 0 
-0.0655273 0.039418 0.00970314 0 0 0 
-0.0672692 0.0356048 0.00805258 0 0 0 
-0.07268 0.0113739 0.00465717 0 0 0 
-0.0726686 0.0148618 0.00330498 0 0 0 
-0.0578658 0.018948 0.0390172 0 0 0 
-0.06694 0.0146644 0.0178296 0 0 0 
-0.0702545 0.0114221 0.0107549 0 0 0 
-0.0700036 0.0182871 0.00866935 0 0 0 
-0.0658281 0.0246704 0.0166718 0 0 0 
-0.0661198 0.024427 0.0160324 0 0 0 
-0.0554718 0.0154413 0.046443 0 0 0 
-0.0608942 0.0241045 0.0293382 0 0 0 
-0.0691324 0.0120153 0.0133497 0 0 0 
-0.0662741 0.0107632 0.0210535 0 0 0 
-0.069985 0.0262672 0.0055564 0 0 0 
-0.064213 0.0295796 0.0188009 0 0 0 
-0.0547908 0.0194321 0.04658 0 0 0 
-0.0695769 0.00823556 0.0137252 0 0 0 
-0.0564545 0.0101466 0.0462857 0 0 0 
-0.0618639 0.00536154 0.0346015 0 0 0 
-0.0747257 -0.009814 0.00855542 0 0 0 
-0.0682606 -0.00351252 0.0222537 0 0 0 
-0.0675244 0.000866494 0.0221413 0 0 0 
-0.0717137 -0.00333855 0.0133207 0 0 0 
-0.0651531 0.00767131 0.0251132 0 0 0 
-0.0761633 -0.00131987 0.000989893 0 0 0 
-0.07376 -0.00019783 0.00663946 0 0 0 
-0.0655475 -0.000622831 0.0278902 0 0 0 
0.0188451 -0.0412186 0.0593531 0 0 0 
0.0326336 -0.0258482 0.0590277 0 0 0 
0.0279154 -0.0429467 0.0558285 0 0 0 
0.0229387 -0.0471027 0.0563351 0 0 0 
0.0452276 -0.00888625 0.0595479 0 0 0 
0.0380372 -0.0312484 0.0557058 0 0 0 
0.0355692 -0.0252083 0.0582223 0 0 0 
0.0319604 -0.0418143 0.0547889 0 0 0 
0.0423629 -0.0275407 0.0552921 0 0 0 
0.0241128 -0.0419369 0.0573859 0 0 0 
0.0318964 -0.0245828 0.0596287 0 0 0 
0.0249081 -0.046329 0.0558911 0 0 0 
0.0152269 -0.0438325 0.0598354 0 0 0 
0.0602493 0.00757593 0.0420321 0 0 0 
0.0667567 -0.00515185 0.0331968 0 0 0 
0.0616603 0.00504649 0.0399904 0 0 0 
0.0700847 -0.007752 0.0265419 0 0 0 
0.0580378 0.00454464 0.0490555 0 0 0 
0.0551703 0.00785034 0.0542074 0 0 0 
0.0636943 0.00881679 0.0329935 0 0 0 
0.0758438 -0.00678684 0.0120381 0 0 0 
0.0591002 0.0136981 0.0414742 0 0 0 
0.0719267 -0.00489499 0.02051 0 0 0 
0.0648909 0.00768082 0.0307105 0 0 0 
0.0682454 0.00638549 0.0232776 0 0 0 
0.0634776 0.0256129 0.0243388 0 0 0 
0.0600278 0.0310965 0.0297133 0 0 0 
0.0607601 0.0174238 0.0354096 0 0 0 
0.0728099 0.0122508 0.00899475 0 0 0 
0.0625781 0.0161821 0.0316763 0 0 0 
0.0543778 0.0191771 0.0499396 0 0 0 
0.0624707 0.0383225 0.0198353 0 0 0 
0.0613099 0.0176344 0.0339602 0 0 0 
0.0723673 0.00619472 0.0133791 0 0 0 
0.0617123 0.0283013 0.0271533 0 0 0 
0.0757587 0.00173785 0.00758488 0 0 0 
0.0569854 0.0236826 0.041149 0 0 0 
0.0688595 0.010929 0.0193039 0 0 0 
0.0537952 0.0270174 0.047068 0 0 0 
0.0627193 0.03615 0.0204195 0 0 0 
-0.0473767 0.0573272 -0.0249954 0 0 0 
-0.0488091 0.0563574 -0.0182028 0 0 0 
-0.0471844 0.057632 -0.0242125 0 0 0 
-0.0567598 0.0480652 -0.0087492 0 0 0 
-0.0553274 0.049072 -0.0151832 0 0 0 
-0.0529745 0.0511919 -0.0212252 0 0 0 
-0.067402 0.0371556 0.00427828 0 0 0 
-0.0549567 0.0510444 -0.00332384 0 0 0 
-0.0540684 0.0513217 -0.00816419 0 0 0 
-0.0514261 0.0562596 0.00568527 0 0 0 
-0.0543423 0.0530019 0.00669923 0 0 0 
-0.0439744 0.0644096 0.00161666 0 0 0 
-0.045265 0.0611792 -0.0131145 0 0 0 
-0.0559268 0.0515094 0.00960514 0 0 0 
-0.0548348 0.0519816 0.00288089 0 0 0 
-0.0486037 0.0589262 0.000578372 0 0 0 
-0.0502213 0.0579806 0.00845052 0 0 0 
-0.0293675 -0.0135198 0.0600666 0 0 0 
-0.023761 -0.033798 0.0582956 0 0 0 
-0.0338308 -0.0211725 0.0586676 0 0 0 
-0.0187936 -0.0332805 0.0589083 0 0 0 
-0.00448416 -0.0348759 0.0603091 0 0 0 
-0.0227223 -0.012558 0.0609181 0 0 0 
-0.00484716 -0.0343132 0.0603352 0 0 0 
-0.014161 -0.0216898 0.060791 0 0 0 
-0.024273 -0.0372117 0.0578357 0 0 0 
-0.0100065 -0.026675 0.0606639 0 0 0 
-0.0284723 -0.00541332 0.061123 0 0 0 
-0.0401054 -0.00116184 0.0603329 0 0 0 
-0.021148 -0.0440937 0.0573704 0 0 0 
-0.0182078 -0.0237233 0.0601015 0 0 0 
-0.0360364 -0.0138004 0.0592929 0 0 0 
-0.0116753 -0.0432724 0.0585193 0 0 0 
-0.0319694 -0.0336529 0.0574011 0 0 0 
-0.0379106 -0.024196 0.0578577 0 0 0 
-0.0423639 -0.00339547 0.0598185 0 0 0 
-0.0404006 -0.0182026 0.0582887 0 0 0 
-0.0468573 -0.0108593 0.0584385 0 0 0 
-0.0595944 -0.0296281 -0.0376686 0 0 0 
-0.0650084 -0.0107736 -0.0327316 0 0 0 
-0.0683154 -0.0194665 -0.0182082 0 0 0 
-0.0583464 -0.0438325 -0.0331931 0 0 0 
-0.0723963 -0.0116026 -0.0108721 0 0 0 
-0.0719997 -0.00309722 -0.0168635 0 0 0 
-0.0603482 -0.0194435 -0.0412858 0 0 0 
-0.0647507 -0.0146446 -0.0312736 0 0 0 
-0.0623101 -0.0298086 -0.0297041 0 0 0 
-0.0685592 -0.00951316 -0.0231702 0 0 0 
-0.0574504 -0.0418623 -0.0369088 0 0 0 
-0.0731044 -0.00807955 -0.0108283 0 0 0 
-0.0566081 -0.0468826 -0.0364886 0 0 0 
-0.0705516 -0.0107987 -0.0166702 0 0 0 
-0.0684045 -0.0204304 -0.0174013 0 0 0 
-0.0421224 0.0365536 0.0532479 0 0 0 
-0.0251137 0.0366709 0.0591698 0 0 0 
-0.038615 0.027908 0.0598803 0 0 0 
0.00330431 0.0568011 0.0566222 0 0 0 
-0.0403504 0.0271825 0.0597215 0 0 0 
-0.0400276 0.0257219 0.0607469 0 0 0 
-0.0297836 0.0534744 0.0470359 0 0 0 
-0.0243111 0.0464394 0.0533557 0 0 0 
-0.0132542 0.0461545 0.0574308 0 0 0 
-0.0127511 0.0487132 0.0560111 0 0 0 
-0.0184986 0.0423453 0.0579599 0 0 0 
-0.0271017 0.0364396 0.0586135 0 0 0 
-0.0321215 0.061924 0.0409381 0 0 0 
-0.0310161 0.0384541 0.0559764 0 0 0 
-0.0181989 0.049844 0.0533851 0 0 0 
-0.0298755 0.0408152 0.0549048 0 0 0 
0.0275571 0.0487243 0.05148 0 0 0 
0.0120305 0.0570341 0.053953 0 0 0 
0.0244389 0.0532956 0.0496648 0 0 0 
0.0307146 0.0426549 0.0544656 0 0 0 
0.0351004 0.0365416 0.0567668 0 0 0 
0.0190252 0.0485763 0.056594 0 0 0 
0.039432 0.0463923 0.0463838 0 0 0 
0.0304918 0.0411303 0.0558105 0 0 0 
0.029322 0.0617206 0.0400944 0 0 0 
0.040592 0.0358591 0.0540946 0 0 0 
0.0282382 0.0408341 0.057366 0 0 0 
0.0129237 0.0549972 0.0550524 0 0 0 
0.0452941 0.0317273 0.0546323 0 0 0 
0.0211902 0.0514278 0.0530549 0 0 0 
0.0342906 0.0671353 0.0328619 0 0 0 
0.0289832 0.0675276 0.0354677 0 0 0 
-0.0332533 -0.0395114 -0.0580353 0 0 0 
-0.0248458 -0.028916 -0.0648529 0 0 0 
-0.0343593 -0.0313352 -0.0604029 0 0 0 
-0.0254606 -0.0256218 -0.0657424 0 0 0 
-0.0245969 -0.0301577 -0.0645242 0 0 0 
-0.0279976 -0.0355721 -0.0613816 0 0 0 
-0.0139693 -0.0398219 -0.0656478 0 0 0 
-0.00325928 -0.0488034 -0.0670437 0 0 0 
-0.00846067 -0.0394166 -0.068008 0 0 0 
-0.0290344 -0.0415039 -0.0590057 0 0 0 
-0.0244936 -0.0342682 -0.0632068 0 0 0 
-0.0126386 -0.0315644 -0.0688846 0 0 0 
-0.0111811 -0.0472492 -0.064348 0 0 0 
-0.0151963 -0.0415746 -0.0645788 0 0 0 
-0.0200107 -0.0271796 -0.0673364 0 0 0 
-0.0250674 -0.0436158 -0.0599198 0 0 0 
