ply
format ascii 1.0
comment Created by CloudCompare v2.12 alpha
comment Created 2021-12-12T03:29:15
obj_info Generated by CloudCompare!
element vertex 829
property float x
property float y
property float z
property float nx
property float ny
property float nz
end_header
-0.042839 0.074665 -0.026377 -0.984919 0.001131 0.173011 
-0.047434 0.031929 -0.035796 0.173011 0.001131 0.984919 
-0.048258 0.031620 -0.036666 -0.173011 0.001131 -0.984919 
-0.038355 0.038658 -0.003824 -0.984919 -0.001131 0.173011 
-0.039359 0.040086 -0.009522 -0.984919 -0.001131 0.173011 
-0.040457 0.046214 -0.015750 -0.984919 0.001131 0.173011 
-0.037455 0.029580 0.000128 -0.984919 0.001131 0.173011 
-0.037816 0.021373 -0.001923 -0.984919 0.001131 0.173011 
-0.039384 0.020576 -0.010815 -0.984919 0.001131 0.173011 
-0.011844 0.053833 -0.007701 0.996132 -0.001059 -0.087863 
-0.013754 0.053945 -0.029525 0.996132 -0.001059 -0.087863 
-0.014671 0.059425 -0.040006 0.996132 0.001059 -0.087863 
-0.011372 0.064178 -0.002306 0.996132 0.001059 -0.087863 
-0.011328 0.046721 -0.001799 0.996132 0.001059 -0.087863 
-0.015093 0.073912 -0.030447 -0.061933 0.707188 -0.704308 
-0.012772 0.051856 -0.018303 0.996132 0.001059 -0.087863 
-0.012995 0.083226 -0.020853 0.996132 0.001059 -0.087863 
-0.012572 0.088754 -0.016015 0.996132 0.001059 -0.087863 
-0.013172 0.058241 0.000190 0.087863 0.001059 0.996132 
-0.013882 0.089907 -0.030996 0.996132 0.001059 -0.087863 
-0.014621 0.043356 -0.027965 -0.996132 0.001059 0.087863 
-0.015837 0.073001 -0.010775 -0.032682 0.924238 -0.380415 
-0.017554 0.076700 -0.013835 0.000978 0.999999 0.000978 
-0.018120 0.076344 -0.032643 -0.078268 0.424292 -0.902136 
-0.015180 0.048700 -0.014640 0.000978 -0.999999 0.000978 
-0.014956 0.035505 -0.023946 -0.087863 -0.001059 -0.996132 
-0.015592 0.069533 -0.031029 -0.996132 -0.001059 0.087863 
-0.015079 0.058178 -0.025167 -0.996132 0.001059 0.087863 
-0.019500 0.057389 -0.040614 0.087863 -0.001059 0.996132 
-0.014791 0.099995 -0.012441 -0.551924 0.488176 0.676065 
-0.016600 0.100541 -0.028449 -0.663175 0.549008 -0.508714 
-0.014094 0.082140 -0.006232 0.081330 0.353319 0.931961 
-0.016538 0.081549 -0.005795 0.081330 0.353319 0.931961 
-0.015087 0.035584 -0.010342 -0.996132 0.001059 0.087863 
-0.017104 0.073841 -0.040564 -0.078268 0.424292 -0.902136 
-0.014148 0.091096 -0.010371 -0.081330 -0.353319 -0.931961 
-0.014057 0.091443 -0.013489 -0.996132 0.001059 0.087863 
-0.015925 0.066917 0.003024 -0.996132 -0.001059 0.087863 
-0.013776 0.057857 -0.016008 -0.996132 -0.001059 0.087863 
-0.015282 0.033760 -0.012572 -0.996132 0.001059 0.087863 
-0.015778 0.068300 0.001246 0.000978 0.999999 0.000978 
-0.012612 0.046992 -0.004997 -0.996132 0.001059 0.087863 
-0.013444 0.045596 -0.014510 -0.996132 0.001059 0.087863 
-0.016292 0.078198 -0.037685 -0.730970 -0.639796 -0.237369 
0.013830 0.061829 -0.023002 0.999999 0.000978 0.000978 
0.013830 0.056708 -0.038364 0.999999 0.000978 0.000978 
0.013830 0.042993 -0.023846 0.999999 0.000978 0.000978 
0.013830 0.065974 -0.005505 0.999999 0.000978 0.000978 
0.012947 0.079238 -0.031767 -0.210896 0.903217 0.373795 
0.013830 0.057140 -0.018239 0.999999 0.000978 0.000978 
0.012628 0.080570 -0.040224 0.001299 0.424733 -0.905318 
0.013830 0.073096 -0.016260 0.999999 0.000978 0.000978 
0.012111 0.033767 -0.037400 0.000978 0.000978 0.999999 
0.013830 0.036159 -0.000077 0.999999 0.000978 0.000978 
0.013700 0.048324 0.000000 0.000978 0.000978 0.999999 
0.013830 0.093526 -0.029480 0.999999 0.000978 0.000978 
0.012830 0.050949 -0.034665 -0.999999 0.000978 0.000978 
0.011030 0.075182 -0.041557 -0.999999 0.000978 0.000978 
0.009316 0.057750 -0.041630 0.000978 -0.999999 0.000978 
0.009290 0.051500 -0.040171 0.000978 -0.999999 0.000978 
0.009432 0.078763 -0.012436 -0.001277 0.384343 0.923189 
0.010770 0.080265 -0.012342 0.001275 -0.381263 0.924466 
0.007830 0.054857 -0.022284 -0.999999 0.000978 0.000978 
0.009084 0.079307 -0.028111 0.001297 0.421606 0.906778 
0.012130 0.058158 -0.013100 -0.999999 0.000978 0.000978 
0.012130 0.057333 -0.011789 -0.999999 0.000978 0.000978 
0.010578 0.053900 -0.005252 0.000978 -0.999999 0.000978 
0.012015 0.053900 -0.006472 0.000978 -0.999999 0.000978 
0.009663 0.041300 -0.020900 0.000978 0.999999 0.000978 
0.008556 0.059900 -0.020635 0.000978 0.999999 0.000978 
0.012130 0.063223 -0.034252 -0.999999 0.000978 0.000978 
0.012130 0.062964 -0.036545 -0.999999 0.000978 0.000978 
0.011830 0.058724 -0.038504 -0.999999 0.000978 0.000978 
0.011766 0.107315 -0.014831 -0.613822 0.746370 0.257206 
0.011091 0.103858 -0.030867 -0.650360 0.502474 -0.569695 
0.011748 0.041000 -0.009273 0.000978 0.999999 0.000978 
0.008830 0.037091 -0.001927 -0.999999 0.000978 0.000978 
0.011739 0.091090 -0.008641 0.001259 -0.353743 -0.935342 
0.012130 0.099414 -0.022780 -0.999999 0.000978 0.000978 
0.011474 0.103530 -0.027713 0.001371 -0.615457 0.788169 
0.008790 0.054192 -0.039400 0.000978 0.000978 0.999999 
0.012457 0.075280 -0.015269 -0.751187 -0.609453 0.253545 
0.010830 0.039412 -0.014859 -0.999999 0.000978 0.000978 
0.010830 0.086835 -0.022265 -0.999999 0.000978 0.000978 
0.008843 0.069019 0.005000 0.000978 0.000978 0.999999 
0.011107 0.034855 0.002645 0.001384 -0.707106 -0.707106 
0.012830 0.043875 -0.012689 -0.999999 0.000978 0.000978 
0.013430 0.094447 -0.023943 0.999999 0.000978 0.000978 
0.039694 0.047427 -0.008795 0.996132 -0.001059 0.087863 
0.041454 0.045972 -0.028909 0.996132 0.001059 0.087863 
0.040961 0.050274 -0.023274 0.996132 0.001059 0.087863 
0.042025 0.056023 -0.035437 0.996132 0.001059 0.087863 
0.040644 0.056419 -0.019655 0.996132 0.001059 0.087863 
0.038769 0.046552 0.001778 0.996132 0.001059 0.087863 
0.041567 0.026570 -0.030195 0.996132 0.001059 0.087863 
0.039648 0.028856 -0.008270 0.996132 -0.001059 0.087863 
0.039719 0.085547 -0.009076 0.996132 -0.001059 0.087863 
0.039667 0.091316 -0.008485 0.996132 -0.001059 0.087863 
0.039661 0.080169 -0.008418 0.996132 -0.001059 0.087863 
0.040506 0.038602 -0.018075 0.996132 0.001059 0.087863 
0.041174 0.093721 -0.025705 0.996132 -0.001059 0.087863 
0.039294 0.092194 -0.006556 0.616045 0.551909 0.562036 
0.041035 0.027028 -0.035588 -0.996132 -0.001059 -0.087863 
0.037207 0.049056 -0.016709 -0.078074 0.423244 0.902646 
0.037463 0.042678 -0.017715 -0.996132 0.001059 -0.087863 
0.038998 0.041931 -0.022105 0.087863 0.001059 -0.996132 
0.040899 0.027252 -0.034041 -0.996132 0.001059 -0.087863 
0.040523 0.055513 -0.037767 -0.996132 0.001059 -0.087863 
0.037147 0.050994 -0.039332 -0.087863 0.001059 0.996132 
0.033952 0.084163 -0.007342 -0.081330 0.353319 0.931961 
0.038039 0.082667 -0.032688 0.078268 0.424292 -0.902136 
0.039170 0.084981 -0.032543 -0.517674 0.042794 -0.854507 
0.033634 0.027848 0.003111 -0.996132 -0.001059 -0.087863 
0.037697 0.090346 -0.010172 0.067456 -0.615717 -0.785075 
0.037909 0.076626 -0.007892 -0.996132 0.001059 -0.087863 
0.033392 0.062183 0.005873 -0.996132 0.001059 -0.087863 
0.037615 0.049369 -0.039105 -0.072461 0.555535 0.828330 
0.038974 0.042308 -0.037366 -0.087863 0.001059 0.996132 
0.038467 0.064870 -0.008541 -0.996132 -0.001059 -0.087863 
0.038688 0.050529 -0.016797 -0.996132 0.001059 -0.087863 
0.041177 0.077084 -0.033691 0.950610 0.157314 -0.267569 
0.011273 0.024512 0.025279 -0.813433 -0.106226 0.571877 
0.023889 0.032592 0.044750 -0.813433 -0.106226 0.571877 
0.006877 0.015964 0.017442 -0.813433 -0.106226 0.571877 
0.020920 0.008794 0.036149 -0.813433 -0.106226 0.571877 
0.010680 0.032236 0.025851 -0.813433 -0.106226 0.571877 
0.026022 0.038070 0.048797 -0.813433 -0.106226 0.571877 
0.024333 0.041842 0.047082 -0.813433 -0.106226 0.571877 
0.015845 0.043983 0.035372 -0.813433 -0.106226 0.571877 
0.022563 0.038311 0.043909 -0.813433 -0.106226 0.571877 
0.022943 0.044478 0.045582 -0.813433 -0.106226 0.571877 
0.017263 0.046383 0.036466 -0.011857 -0.436081 0.899829 
0.018572 0.001014 0.031373 -0.813433 -0.106226 0.571877 
0.008082 0.009582 0.017990 -0.813433 -0.106226 0.571877 
0.027203 0.055833 0.053741 -0.813433 -0.106226 0.571877 
0.022136 0.064868 0.048175 -0.813433 -0.106226 0.571877 
0.017841 0.038204 0.037156 -0.813433 -0.106226 0.571877 
0.023141 -0.004406 0.036893 -0.813433 -0.106226 0.571877 
0.007154 0.017801 0.017987 -0.548325 0.454993 -0.701656 
0.016987 0.055912 0.039069 -0.960642 0.104727 0.257292 
0.023611 0.067308 0.050726 -0.813433 -0.106226 0.571877 
0.031636 0.045103 0.058092 -0.813433 -0.106226 0.571877 
0.020667 0.047081 0.035443 0.037294 -0.991111 -0.127703 
0.024187 0.046109 0.042402 0.813433 0.106226 -0.571877 
0.032721 0.040318 0.055259 0.813433 0.106226 -0.571877 
0.034462 0.038133 0.050335 0.813433 0.106226 -0.571877 
0.014345 0.030651 0.020892 0.186124 0.883725 0.429405 
0.013080 0.030136 0.018381 0.813433 0.106226 -0.571877 
0.017728 0.008033 0.025913 0.186124 0.883725 0.429405 
0.018675 0.003820 0.030285 0.813433 0.106226 -0.571877 
0.027611 0.016964 0.044212 0.813433 0.106226 -0.571877 
0.025900 0.039677 0.045940 0.813433 0.106226 -0.571877 
0.033211 0.023672 0.053427 0.813433 0.106226 -0.571877 
0.032196 0.022822 0.051824 0.813433 0.106226 -0.571877 
0.023887 0.025236 0.040420 0.813433 0.106226 -0.571877 
0.033091 0.018224 0.050333 -0.548325 0.454993 -0.701656 
0.024652 0.062859 0.042212 -0.447781 0.738591 -0.503960 
0.033638 0.042454 0.056147 -0.580088 0.116018 -0.806249 
0.007180 0.022073 0.016036 0.548325 -0.454993 0.701656 
0.008277 0.026819 0.019680 0.813433 0.106226 -0.571877 
0.034965 0.048641 0.059776 0.931383 -0.267119 0.247332 
0.029422 0.006781 0.043184 -0.548325 0.454993 -0.701656 
0.018144 0.048101 0.036429 0.813433 0.106226 -0.571877 
0.009808 0.030397 0.017685 -0.548325 0.454993 -0.701656 
0.020340 0.034962 0.038024 0.813433 0.106226 -0.571877 
0.022401 0.033554 0.039828 0.813433 0.106226 -0.571877 
0.016861 0.021016 0.028917 -0.186124 -0.883725 -0.429405 
0.007865 0.019500 0.017749 0.813433 0.106226 -0.571877 
0.026432 0.053326 0.050166 0.013949 0.937121 0.348726 
-0.038395 0.055520 -0.028235 -0.996132 -0.001059 0.087863 
-0.039083 0.062499 -0.036093 -0.996132 0.001059 0.087863 
-0.037249 0.045596 -0.015133 -0.996132 0.001059 0.087863 
-0.035964 0.063335 -0.000447 -0.996132 0.001059 0.087863 
-0.037645 0.042877 -0.019663 -0.996132 -0.001059 0.087863 
-0.037717 0.036027 -0.020484 -0.996132 -0.001059 0.087863 
-0.036529 0.076709 -0.006909 -0.996132 0.001059 0.087863 
-0.038468 0.081254 -0.029073 -0.996132 0.001059 0.087863 
-0.038659 0.058490 -0.039235 -0.766300 -0.001376 -0.642481 
-0.037634 0.103221 -0.019541 -0.996132 0.001059 0.087863 
-0.035853 0.041575 0.000822 -0.996132 0.001059 0.087863 
-0.035137 0.042378 -0.002465 0.996132 0.001059 -0.087863 
-0.036018 0.041420 -0.012541 0.996132 0.001059 -0.087863 
-0.035381 0.045353 -0.005252 0.996132 -0.001059 -0.087863 
-0.033500 0.073774 -0.010114 -0.074219 0.918966 0.387288 
-0.035699 0.084948 -0.027923 -0.081025 0.341366 -0.936432 
-0.034936 0.088943 -0.004958 0.533177 -0.023301 0.845682 
-0.035764 0.061291 -0.017661 0.996132 0.001059 -0.087863 
-0.035042 0.068978 -0.009414 0.996132 -0.001059 -0.087863 
-0.036094 0.056114 -0.021439 0.996132 -0.001059 -0.087863 
-0.035757 0.084947 -0.032506 0.996132 0.001059 -0.087863 
-0.037977 0.059656 -0.037225 0.996132 0.001059 -0.087863 
-0.030967 0.033468 -0.000695 0.996132 0.001059 -0.087863 
-0.037612 0.086088 -0.023874 -0.996132 0.001059 0.087863 
-0.038001 0.085843 -0.028323 -0.996132 0.001059 0.087863 
0.015372 0.054786 -0.013730 -0.996132 -0.001059 -0.087863 
0.016081 0.059247 -0.021841 -0.996132 0.001059 -0.087863 
0.017262 0.064303 -0.035332 -0.996132 -0.001059 -0.087863 
0.014963 0.055735 -0.009053 -0.996132 -0.001059 -0.087863 
0.014687 0.038359 -0.005896 -0.996132 0.001059 -0.087863 
0.015586 0.039416 -0.016175 -0.996132 0.001059 -0.087863 
0.015855 0.032606 -0.019247 -0.996132 0.001059 -0.087863 
0.015099 0.065181 -0.010614 -0.996132 -0.001059 -0.087863 
0.016317 0.075323 -0.021602 -0.061933 0.707188 0.704308 
0.016868 0.072098 -0.030836 -0.996132 0.001059 -0.087863 
0.017562 0.076267 -0.020780 -0.061933 -0.707188 0.704308 
0.016287 0.026171 -0.024193 -0.996132 -0.001059 -0.087863 
0.015118 0.089015 -0.010826 -0.996132 -0.001059 -0.087863 
0.016302 0.089365 -0.024363 -0.996132 -0.001059 -0.087863 
0.014302 0.048825 -0.001500 -0.996132 0.001059 -0.087863 
0.015885 0.029359 -0.004000 -0.704308 0.707188 -0.061933 
0.017094 0.059327 -0.011540 -0.042546 -0.866018 0.498200 
0.018829 0.027802 -0.020605 0.061933 0.707188 -0.704308 
0.019392 0.049000 -0.000141 0.000978 0.999999 0.000978 
0.019946 0.046589 -0.031588 0.996132 0.001059 0.087863 
0.018041 0.070935 -0.024737 0.996132 0.001059 0.087863 
0.018059 0.067270 -0.012546 0.026150 -0.955101 -0.295123 
0.023646 0.048678 -0.039458 0.996132 -0.001059 0.087863 
0.020473 0.095627 -0.016278 0.587458 0.756213 0.288157 
0.016569 0.097902 -0.014202 0.609717 0.731982 0.304054 
0.023054 0.082971 -0.033855 0.078268 0.424292 -0.902136 
0.016720 0.083763 -0.009637 0.996132 0.001059 0.087863 
0.017191 0.061499 -0.015017 0.996132 -0.001059 0.087863 
0.017374 0.067047 -0.017109 0.996132 -0.001059 0.087863 
0.018094 0.094526 -0.015560 0.026212 -0.954882 -0.295826 
0.015389 0.040552 -0.002457 0.996132 0.001059 0.087863 
-0.065018 0.036698 -0.019940 -0.984919 -0.001131 0.173011 
-0.061589 0.045280 -0.000493 -0.984919 -0.001131 0.173011 
-0.060893 0.035046 0.003457 -0.984919 0.001131 0.173011 
-0.064297 0.024517 -0.015850 -0.984919 0.001131 0.173011 
-0.064880 0.030118 -0.019155 -0.984919 -0.001131 0.173011 
-0.062420 0.036350 -0.005204 -0.984919 -0.001131 0.173011 
-0.064621 0.024153 -0.017689 -0.984919 0.001131 0.173011 
-0.064947 0.031423 -0.019538 -0.984919 0.001131 0.173011 
-0.066241 0.058794 -0.026873 -0.984919 0.001131 0.173011 
-0.063378 0.075255 -0.010636 -0.984919 -0.001131 0.173011 
-0.065936 0.067074 -0.025148 -0.984919 0.001131 0.173011 
-0.057390 0.023501 0.005967 0.173011 0.001131 0.984919 
-0.060816 0.011550 0.002483 0.000978 -0.999999 0.000978 
-0.063797 0.027513 -0.035957 -0.173011 -0.001131 -0.984919 
-0.063883 0.027300 -0.035009 0.000978 -0.999999 0.000978 
-0.059974 0.014211 -0.014456 -0.123646 -0.707614 -0.695697 
-0.061500 0.018266 -0.017266 0.984919 0.001131 -0.173011 
-0.061687 0.029303 -0.011502 0.160447 -0.381950 0.910149 
-0.063700 0.014847 -0.018223 0.984919 0.001131 -0.173011 
-0.064630 0.062005 -0.027530 0.984919 0.001131 -0.173011 
-0.063285 0.066774 -0.019900 0.984919 0.001131 -0.173011 
-0.062102 0.060768 -0.013190 0.984919 -0.001131 -0.173011 
-0.063584 0.080380 -0.024130 0.543396 0.529937 -0.651066 
-0.058068 0.082443 -0.015073 0.000978 0.999999 0.000978 
-0.059118 0.078146 -0.004792 0.752285 0.462565 0.469149 
-0.058499 0.076256 -0.004173 0.774218 0.263329 0.575539 
-0.061610 0.050838 -0.010403 0.984919 -0.001131 -0.173011 
-0.062163 0.035313 -0.013536 0.984919 0.001131 -0.173011 
-0.062835 0.040384 -0.015936 0.712794 0.219921 -0.666002 
-0.061591 0.076905 -0.010292 0.984919 -0.001131 -0.173011 
-0.059523 0.080561 -0.019840 0.052110 -0.954508 0.293597 
-0.064828 0.054608 -0.028652 0.984919 -0.001131 -0.173011 
-0.064482 0.037498 -0.023811 0.984919 0.001131 -0.173011 
-0.065411 0.042527 -0.035115 0.142350 0.074116 0.987038 
-0.055479 0.014983 0.005366 0.984919 -0.001131 -0.173011 
-0.010830 0.061496 -0.030992 -0.999999 0.000978 0.000978 
-0.010830 0.067768 -0.030006 -0.999999 0.000978 0.000978 
-0.010830 0.068986 -0.016896 -0.999999 0.000978 0.000978 
-0.010830 0.071790 -0.034794 -0.999999 0.000978 0.000978 
-0.010830 0.058154 -0.023282 -0.999999 0.000978 0.000978 
-0.010830 0.054291 -0.021694 -0.999999 0.000978 0.000978 
-0.010830 0.041939 -0.023670 -0.999999 0.000978 0.000978 
-0.010830 0.045667 -0.018125 -0.999999 0.000978 0.000978 
-0.010830 0.043343 -0.018232 -0.999999 0.000978 0.000978 
-0.010830 0.074624 -0.015944 -0.999999 0.000978 0.000978 
-0.010497 0.037800 -0.020900 0.001381 0.708486 -0.705724 
-0.010830 0.036996 -0.025223 -0.999999 0.000978 0.000978 
-0.009325 0.036750 -0.012829 0.000978 -0.999999 0.000978 
-0.010540 0.035750 -0.030466 0.000978 -0.999999 0.000978 
-0.010180 0.034286 -0.039900 0.000978 0.000978 -0.999999 
-0.010830 0.095965 -0.030659 -0.999999 0.000978 0.000978 
-0.010830 0.102358 -0.020989 -0.999999 0.000978 0.000978 
-0.007853 0.050651 0.000000 0.000978 0.000978 0.999999 
-0.006830 0.057736 -0.041910 0.999999 0.000978 0.000978 
-0.007439 0.079269 -0.010831 0.001381 0.708486 -0.705724 
-0.004830 0.081917 -0.009697 0.999999 0.000978 0.000978 
-0.007830 0.047073 -0.020573 0.999999 0.000978 0.000978 
-0.008950 0.045176 -0.024200 0.000978 0.000978 -0.999999 
-0.009130 0.079445 -0.025384 0.999999 0.000978 0.000978 
-0.007080 0.078807 -0.013951 0.001292 -0.412244 -0.911072 
-0.007830 0.083628 -0.013244 0.999999 0.000978 0.000978 
-0.009130 0.089969 -0.022346 0.999999 0.000978 0.000978 
-0.006334 0.100218 -0.031599 0.656932 0.319545 -0.682885 
-0.008204 0.041976 -0.039400 0.000978 0.000978 0.999999 
-0.009130 0.067187 -0.006935 0.999999 0.000978 0.000978 
-0.008893 0.067069 -0.007849 0.001334 -0.500299 0.865851 
-0.008993 0.094199 -0.023785 -0.001334 -0.500299 -0.865851 
-0.005546 0.092886 -0.009319 0.001259 -0.353743 -0.935342 
-0.005350 0.104517 -0.015829 -0.001223 -0.954848 -0.297091 
-0.007969 0.104431 -0.026843 -0.001223 -0.954848 0.297091 
-0.009380 0.077518 -0.032506 0.615172 -0.727605 0.303570 
-0.007830 0.090432 -0.034022 0.999999 0.000978 0.000978 
0.042074 0.031107 0.027222 0.813433 0.106226 -0.571877 
0.037451 0.040586 0.022370 0.813433 0.106226 -0.571877 
0.037657 0.020469 0.018972 0.813433 0.106226 -0.571877 
0.041464 0.013345 0.023092 0.813433 0.106226 -0.571877 
0.037020 0.051977 0.023846 0.813433 0.106226 -0.571877 
0.028135 0.018738 0.005078 0.813433 0.106226 -0.571877 
0.036205 0.006467 0.014332 0.813681 0.103348 -0.572051 
0.043220 0.050026 0.032329 0.813433 0.106226 -0.571877 
0.039915 0.053402 0.028235 0.813433 0.106226 -0.571877 
0.040146 0.057411 0.029300 0.813433 0.106226 -0.571877 
0.047771 0.047643 0.040963 -0.580095 0.082048 -0.810406 
0.035244 0.004505 0.012602 -0.186124 -0.883725 -0.429405 
0.051211 0.050794 0.043863 0.813433 0.106226 -0.571877 
0.048442 0.069400 0.043820 0.726400 0.672258 -0.142874 
0.028044 0.047347 0.015489 0.186124 0.883725 0.429405 
0.024127 0.026576 0.003949 -0.548325 0.454993 -0.701656 
0.046716 0.018381 0.041234 -0.444091 0.550540 0.706887 
0.034900 0.035710 0.018714 -0.813681 -0.103348 0.572051 
0.034788 0.036379 0.018676 -0.813433 -0.106226 0.571877 
0.031888 0.008824 0.018105 0.186124 0.883725 0.429405 
0.032610 0.013022 0.015662 -0.813433 -0.106226 0.571877 
0.032007 0.026967 0.016312 -0.813433 -0.106226 0.571877 
0.040083 0.023101 0.026380 0.186124 0.883725 0.429405 
0.048605 0.037306 0.040649 -0.813433 -0.106226 0.571877 
0.033198 0.050527 0.027435 0.186124 0.883725 0.429405 
0.033785 0.060587 0.030747 -0.447781 0.738591 -0.503960 
0.040790 0.069912 0.037038 -0.729201 0.665528 0.159181 
0.047997 0.049622 0.049083 0.576329 -0.037678 0.816349 
0.037754 0.063339 0.027841 -0.193378 0.555771 -0.808532 
0.038130 0.061971 0.030300 0.447781 -0.738591 0.503960 
0.032546 0.055511 0.025790 0.447781 -0.738591 0.503960 
0.029668 0.051846 0.022973 0.447781 -0.738591 0.503960 
0.039553 0.036984 0.027682 -0.813433 -0.106226 0.571877 
0.028627 0.039028 0.012479 -0.813433 -0.106226 0.571877 
0.031739 0.033284 0.015863 -0.813433 -0.106226 0.571877 
0.049407 0.056654 0.045343 -0.813433 -0.106226 0.571877 
0.036582 0.028230 0.021840 -0.813433 -0.106226 0.571877 
0.045452 0.067326 0.041664 -0.813433 -0.106226 0.571877 
0.047124 0.062608 0.047794 -0.343470 -0.708102 -0.616944 
0.047996 0.058868 0.048182 -0.549162 -0.183054 -0.815422 
0.050629 0.028533 0.041924 -0.813433 -0.106226 0.571877 
0.047175 0.024675 0.035416 -0.813433 -0.106226 0.571877 
0.026412 0.028822 0.006224 -0.813433 -0.106226 0.571877 
0.034168 0.018372 0.015364 -0.813433 -0.106226 0.571877 
0.024999 0.045866 0.012266 0.548325 -0.454993 0.701656 
0.022872 0.045401 0.011100 -0.707853 -0.699023 0.101542 
0.029762 0.050337 0.019682 -0.447781 0.738591 -0.503960 
0.031138 0.054237 0.024181 -0.447781 0.738591 -0.503960 
0.041536 0.012758 0.024838 -0.813433 -0.106226 0.571877 
-0.026344 -0.006703 0.009039 -0.565656 -0.004089 0.824631 
0.010976 -0.018500 0.009922 0.000978 0.999999 0.000978 
-0.011683 -0.018424 0.010275 0.384343 0.923189 0.001277 
-0.020767 0.002325 -0.005000 0.000978 0.000978 -0.999999 
-0.027000 -0.005381 -0.001540 -0.999999 0.000978 0.000978 
-0.027665 -0.015000 -0.018412 0.000978 0.999999 0.000978 
-0.007327 -0.013705 -0.005000 0.000978 0.000978 -0.999999 
0.003166 -0.003327 -0.005000 0.000978 0.000978 -0.999999 
-0.001500 -0.010605 -0.007279 0.999999 0.000978 0.000978 
-0.003419 -0.001000 -0.003912 0.000978 0.999999 0.000978 
-0.025767 -0.001067 -0.003010 -0.708486 0.705724 0.001381 
-0.018915 0.003913 0.006800 0.000978 0.000978 -0.999999 
-0.020066 -0.009737 0.000000 0.000978 0.000978 0.999999 
-0.017478 -0.012470 0.000000 0.000978 0.000978 0.999999 
-0.014890 -0.000849 0.007038 -0.865851 0.500299 0.001334 
-0.017423 0.012335 0.000000 0.000978 0.000978 0.999999 
0.000823 -0.006155 0.006800 0.000978 0.000978 -0.999999 
0.000250 -0.017702 -0.042897 -0.865851 0.001334 0.500299 
0.000054 -0.016854 -0.040060 -0.865851 0.001334 -0.500299 
0.006358 -0.015000 -0.037410 0.000978 0.999999 0.000978 
-0.003245 -0.021219 -0.039051 0.000978 0.000978 -0.999999 
-0.004504 -0.020817 -0.040739 0.865851 0.001334 -0.500299 
0.011705 -0.015000 -0.036486 0.000978 0.999999 0.000978 
0.008646 -0.015000 -0.021398 0.000978 0.999999 0.000978 
0.015271 -0.015000 -0.003131 0.000978 0.999999 0.000978 
-0.010931 -0.015000 -0.046016 0.000978 0.999999 0.000978 
0.013104 -0.015000 -0.001656 0.000978 0.999999 0.000978 
-0.007684 -0.015000 0.006366 0.000978 0.999999 0.000978 
-0.010642 -0.015000 0.001583 0.000978 0.999999 0.000978 
-0.028373 -0.015000 0.004050 0.000978 0.999999 0.000978 
-0.037316 -0.015000 -0.007118 0.000978 0.999999 0.000978 
-0.032417 -0.015000 -0.033993 0.000978 0.999999 0.000978 
-0.019027 -0.015000 -0.032056 0.000978 0.999999 0.000978 
0.004817 -0.017545 -0.019250 0.000978 0.000978 -0.999999 
-0.009442 -0.018001 -0.026602 -0.865851 0.001334 0.500299 
-0.011201 -0.016581 -0.031123 -0.883337 0.001320 0.468736 
-0.017718 -0.017192 -0.018638 0.500186 -0.028621 -0.865445 
0.019021 -0.022331 0.002378 0.792878 0.001369 0.609379 
0.017512 -0.021782 -0.039690 0.676037 -0.001382 -0.736866 
-0.039755 -0.022500 -0.004750 0.000978 -0.999999 0.000978 
-0.026492 -0.022500 -0.040919 0.000978 -0.999999 0.000978 
-0.030657 -0.022500 0.005198 0.000978 -0.999999 0.000978 
-0.019461 -0.022500 0.008042 0.000978 -0.999999 0.000978 
-0.042612 -0.022500 -0.017975 0.000978 -0.999999 0.000978 
0.011931 -0.022500 -0.039782 0.000978 -0.999999 0.000978 
0.002168 -0.022500 -0.039528 0.000978 -0.999999 0.000978 
0.022321 -0.022500 -0.020305 0.000978 -0.999999 0.000978 
0.009006 -0.022500 0.010128 0.000978 -0.999999 0.000978 
0.015051 -0.022500 -0.003978 0.000978 -0.999999 0.000978 
0.022492 -0.017946 -0.013756 0.967410 -0.043023 0.249535 
-0.029439 -0.016114 -0.040397 -0.662640 0.117111 -0.739725 
-0.004876 -0.022500 0.001206 0.000978 -0.999999 0.000978 
-0.017691 -0.022500 0.002086 0.000978 -0.999999 0.000978 
0.003995 -0.023271 -0.006382 0.808912 0.001364 0.587928 
-0.007141 -0.025122 -0.002018 -0.194783 0.005763 -0.980829 
-0.022258 -0.020146 -0.010319 0.835152 -0.006790 -0.549978 
-0.021477 -0.025500 -0.026348 0.000978 -0.999999 0.000978 
0.006485 -0.025040 -0.021455 -0.979792 0.046543 0.194526 
0.002531 -0.021743 -0.006293 -0.556887 0.001355 -0.830587 
0.001046 -0.017000 -0.006326 0.000978 -0.999999 0.000978 
0.003515 -0.020553 -0.016665 0.999999 -0.000978 0.000978 
0.001195 -0.020230 -0.016176 -0.499387 -0.042647 0.865329 
0.008198 -0.021350 0.013969 0.000978 0.999999 0.000978 
0.016526 -0.022229 0.005450 -0.562144 0.704753 -0.432801 
0.025752 -0.021639 -0.020977 -0.704094 0.704094 0.092220 
0.006449 -0.021350 -0.050041 0.000978 0.999999 0.000978 
-0.039732 -0.021747 -0.031742 0.655908 0.703784 0.272896 
-0.039950 -0.021350 -0.002097 0.000978 0.999999 0.000978 
-0.044574 -0.021350 -0.005929 0.000978 0.999999 0.000978 
0.027629 -0.021377 -0.005638 0.678229 0.706165 0.203313 
-0.040905 -0.021977 -0.035695 -0.579758 0.705290 -0.407978 
0.002228 -0.030350 0.012736 0.000978 -0.999999 0.000978 
-0.042589 -0.030350 -0.003215 0.000978 -0.999999 0.000978 
-0.042357 -0.030350 -0.022565 0.000978 -0.999999 0.000978 
-0.037727 -0.030350 -0.039124 0.000978 -0.999999 0.000978 
-0.039747 -0.030350 -0.033688 0.000978 -0.999999 0.000978 
-0.025460 -0.030350 -0.047238 0.000978 -0.999999 0.000978 
0.016869 -0.030350 -0.040147 0.000978 -0.999999 0.000978 
0.010396 -0.030350 -0.044956 0.000978 -0.999999 0.000978 
0.024375 -0.030350 -0.027507 0.000978 -0.999999 0.000978 
0.020124 -0.030350 -0.033213 0.000978 -0.999999 0.000978 
0.001809 -0.030350 0.016172 0.000978 -0.999999 0.000978 
-0.011770 -0.026861 0.013611 0.186387 0.694716 -0.694716 
0.029255 -0.023449 -0.020263 0.995717 0.001063 0.092452 
0.020031 -0.024706 -0.044063 0.727510 0.001380 -0.686096 
0.012879 -0.023551 -0.048769 0.418483 0.001296 -0.908224 
-0.021075 -0.026288 -0.054343 -0.578659 0.001362 -0.815569 
-0.046064 -0.028111 -0.018198 -0.995717 -0.001063 0.092452 
-0.027333 -0.022944 0.014945 -0.418483 0.001296 0.908224 
-0.011790 -0.029349 0.020303 0.092452 0.001063 0.995717 
0.028491 -0.028373 -0.005147 0.957524 0.001217 0.288352 
-0.011253 -0.025324 -0.051142 0.127937 0.001093 0.991782 
-0.000505 -0.022526 -0.050368 -0.114951 0.458384 0.881289 
0.024290 -0.026500 -0.012983 -0.965696 0.001197 -0.259673 
0.017285 -0.025522 0.003163 -0.707106 0.001384 -0.707106 
-0.022661 -0.026850 0.011749 0.000978 0.999999 0.000978 
-0.030140 -0.026850 0.005913 0.000978 0.999999 0.000978 
-0.037876 -0.023174 -0.034578 0.707106 0.001384 0.707106 
-0.040234 -0.023928 -0.028536 0.883907 0.452594 0.117760 
-0.034829 -0.025000 -0.005126 0.000978 0.999999 0.000978 
-0.030302 -0.025000 -0.020581 0.000978 0.999999 0.000978 
-0.013659 -0.025399 -0.048618 -0.259673 0.001197 -0.965696 
-0.025945 -0.025716 -0.044451 -0.707106 -0.001384 -0.707106 
0.011299 -0.026341 -0.042097 0.707106 -0.001384 -0.707106 
0.017426 -0.025000 -0.023457 0.000978 0.999999 0.000978 
0.014634 -0.027699 -0.019898 0.865851 0.001334 0.500299 
-0.004006 -0.025000 0.008098 0.000978 0.999999 0.000978 
-0.017234 -0.025796 0.008358 0.865851 0.001334 -0.500299 
-0.003239 -0.026403 -0.039306 0.000978 0.000978 -0.999999 
-0.009681 -0.025000 -0.039622 0.000978 0.999999 0.000978 
0.021479 -0.030598 -0.011824 0.965696 -0.001197 0.259673 
-0.014361 -0.030832 0.012429 -0.259673 -0.001197 0.965696 
-0.035643 -0.030353 -0.033386 -0.707106 0.001384 -0.707106 
-0.026487 -0.030445 -0.042543 -0.707106 -0.001384 -0.707106 
0.012374 -0.026434 -0.040908 0.509556 -0.693330 -0.509556 
-0.004879 -0.026639 -0.048741 0.186387 -0.694716 -0.694716 
-0.013343 -0.032150 -0.046673 0.000978 -0.999999 0.000978 
-0.010748 -0.032150 -0.045693 0.000978 -0.999999 0.000978 
-0.038152 -0.032150 -0.015962 0.000978 -0.999999 0.000978 
-0.029554 -0.032150 -0.016774 0.000978 -0.999999 0.000978 
-0.003860 -0.032150 0.007471 0.000978 -0.999999 0.000978 
0.012579 -0.032150 0.001528 0.000978 -0.999999 0.000978 
0.018134 -0.032150 -0.011882 0.000978 -0.999999 0.000978 
-0.017901 -0.033252 -0.029665 -0.525820 -0.185318 -0.830163 
0.012373 -0.032150 -0.025602 0.000978 -0.999999 0.000978 
-0.022696 -0.033609 -0.018233 0.924094 0.001278 0.382163 
-0.015798 -0.032000 -0.029341 0.000978 -0.999999 0.000978 
0.006427 -0.028299 -0.020870 -0.449691 -0.889696 -0.078869 
-0.010068 -0.028000 -0.001444 0.000978 0.999999 0.000978 
0.004045 -0.030797 -0.011573 -0.924466 0.001275 -0.381263 
0.011952 -0.026762 -0.030456 -0.865851 -0.001334 -0.500299 
0.034025 -0.022912 -0.006228 0.000978 -0.999999 0.000978 
0.039909 -0.018907 0.011951 0.846870 -0.529816 -0.045890 
0.046560 -0.008635 0.016954 0.837737 -0.545150 -0.031743 
0.040415 -0.015229 0.026678 0.536615 -0.740101 0.405333 
0.030049 -0.022912 0.020381 0.000978 -0.999999 0.000978 
0.030998 -0.022912 0.022374 0.000978 -0.999999 0.000978 
0.039558 -0.012017 0.033632 0.429888 -0.763338 0.482194 
0.029290 -0.017845 0.030986 0.123448 -0.760024 0.638063 
0.046952 -0.003260 0.001130 0.963680 -0.202674 -0.173907 
0.046324 -0.003038 -0.002644 0.954478 -0.218818 -0.202709 
0.045137 -0.000928 -0.010771 0.949242 -0.199626 -0.243082 
0.048122 0.009944 0.047189 0.686555 -0.456033 0.566283 
0.050747 0.013576 0.046952 0.683481 -0.456211 0.569846 
0.050683 0.009106 0.042379 0.890830 -0.370311 0.263233 
0.053963 0.017141 0.036851 0.977308 -0.193003 -0.087282 
0.051573 0.015464 0.019198 0.995999 -0.031498 -0.083633 
0.051846 0.019175 0.020476 0.992760 -0.034618 -0.115022 
0.051120 0.012281 0.015174 0.995693 -0.029317 -0.087951 
0.050135 0.013197 0.005441 0.986896 0.040494 -0.156191 
0.049513 0.009983 0.001249 0.983095 0.029155 -0.180759 
0.045327 0.012327 -0.019971 0.959907 -0.110111 -0.257789 
0.044242 0.015488 -0.025860 0.971447 -0.109618 -0.210417 
0.044191 0.018745 -0.028423 0.987192 -0.105474 -0.119696 
0.040512 0.002980 -0.032307 -0.029645 -0.205143 -0.978283 
0.054365 0.021067 0.041946 0.985998 -0.134400 0.098719 
0.045741 0.029361 0.059717 0.390110 -0.418771 0.820027 
0.051143 0.028367 0.056351 0.745331 -0.345873 0.569959 
0.050561 0.038719 0.023762 0.929965 0.139150 -0.340298 
0.050625 0.032885 0.021342 0.957329 0.209624 -0.198943 
0.054277 0.038513 0.057803 0.808603 -0.287329 0.513424 
0.056155 0.041480 0.047515 0.999379 -0.015344 -0.031710 
0.054133 0.048719 0.039832 0.873858 0.258082 -0.412026 
0.048762 0.049608 0.028138 0.908047 0.317305 -0.273438 
0.054458 0.053714 0.043884 0.871738 0.280472 -0.401757 
0.048626 0.033860 -0.012248 0.998643 0.050814 0.011407 
0.047568 0.048515 -0.018328 0.982115 0.050942 -0.181259 
0.045464 0.054260 -0.030489 0.995589 0.031623 -0.088327 
0.047050 0.055714 -0.010497 0.974463 0.116635 0.191883 
0.045085 0.064821 -0.034973 0.999028 0.043970 0.003068 
0.039861 0.071076 -0.002549 0.295238 -0.754853 0.585689 
0.041430 0.079274 -0.005826 0.923770 0.232727 0.304116 
0.044634 0.074143 -0.011733 0.921575 0.330858 0.203059 
0.044963 0.076987 -0.014837 0.928290 0.156796 0.337182 
0.007019 -0.018408 0.023025 -0.548770 -0.458699 0.698890 
0.023380 -0.019985 0.005665 -0.865732 0.056792 -0.497276 
0.044165 0.085469 -0.022508 0.988912 0.137317 -0.056542 
0.046391 0.046627 0.013806 0.921697 0.384812 0.048928 
0.036614 0.072239 0.001313 0.759648 0.305458 0.574134 
0.053002 0.058295 0.063548 0.052124 0.994790 -0.087613 
0.041201 -0.008745 -0.010609 0.889322 -0.357223 -0.285480 
0.041309 -0.007523 -0.012050 0.893962 -0.346578 -0.284104 
0.031970 -0.015200 0.012944 0.000978 0.999999 0.000978 
0.018303 -0.015200 0.016425 0.000978 0.999999 0.000978 
0.020164 -0.015200 0.008795 0.000978 0.999999 0.000978 
0.042874 -0.012306 0.006968 -0.908368 0.403565 0.109559 
0.047252 -0.000478 0.012940 -0.979177 0.198691 0.041642 
0.044859 -0.008752 0.023366 -0.865329 0.499387 -0.042647 
0.048209 0.001035 0.026222 -0.948766 0.305844 0.079389 
0.040937 -0.012300 0.028857 -0.667159 0.660634 -0.344182 
0.018220 -0.015199 0.028198 0.000978 0.999999 0.000978 
0.042601 0.013620 -0.025341 -0.970784 0.109829 0.213345 
0.043479 0.021545 -0.025426 -0.973456 0.111790 0.199715 
0.043815 0.012698 -0.019951 -0.959907 0.110111 0.257789 
0.043695 -0.001944 -0.009222 -0.958095 0.201213 0.203878 
0.046759 0.007194 -0.004800 -0.973421 0.137617 0.183069 
0.051022 0.016779 0.025945 -0.994981 0.080974 0.058789 
0.043770 0.037766 -0.031833 -0.994072 0.029723 0.104581 
0.046420 0.030582 -0.016833 -0.975570 0.008218 0.219533 
0.046505 0.047734 -0.015231 -0.989210 -0.061319 0.133052 
0.043830 0.063286 -0.028511 -0.994730 -0.049792 0.089625 
0.043654 0.063727 -0.030298 -0.997711 -0.037268 0.056434 
0.045152 0.064756 -0.017163 -0.992100 -0.067203 0.105930 
0.043360 0.081614 -0.019715 -0.988912 -0.137317 0.056542 
0.045082 0.050656 0.022339 -0.891777 -0.333109 0.306222 
0.053345 0.028796 0.035836 -0.997285 0.059043 0.044014 
0.051410 0.032374 0.026979 -0.966613 -0.055981 0.250050 
0.052346 0.023056 0.030647 -0.992323 0.003282 0.123630 
0.050692 0.030583 0.023804 -0.966776 -0.055847 0.249451 
0.048417 0.023639 0.009378 -0.965796 -0.188480 0.178081 
0.045845 0.037978 0.007773 -0.987191 -0.140019 0.076481 
0.047003 0.031590 0.002570 -0.998849 -0.044601 -0.017633 
0.046850 0.011165 0.046668 0.090636 0.444815 -0.891025 
0.033720 -0.015200 -0.015308 0.000978 0.999999 0.000978 
0.029587 0.068066 0.024067 -0.999999 0.000978 0.000978 
0.031436 0.069101 0.019842 -0.283902 0.930803 -0.230229 
0.029587 0.071059 0.005390 -0.999999 0.000978 0.000978 
0.035033 0.072529 0.002513 0.489456 0.580283 0.650926 
0.034871 0.068221 0.009108 0.313909 0.897096 0.310934 
0.040439 0.065288 0.021421 0.797218 0.513975 -0.316659 
0.047092 0.069054 0.037065 0.839887 0.260442 -0.476193 
0.039503 0.067155 0.030200 -0.813433 -0.106226 0.571877 
0.042000 0.061976 0.032809 -0.813433 -0.106226 0.571877 
0.020176 -0.015200 -0.004803 0.000978 0.999999 0.000978 
0.040496 0.097391 -0.014482 0.626446 -0.736902 -0.254050 
0.034610 -0.010382 0.018778 -0.001334 -0.500299 -0.865851 
0.044344 0.072145 -0.015280 -0.110108 0.928439 0.354792 
0.037819 0.062684 0.008474 -0.732088 -0.644675 -0.220095 
0.039457 0.063612 0.021570 -0.706063 -0.597438 0.380188 
0.024604 0.004181 0.045912 0.309080 0.439545 -0.843368 
0.027842 0.000062 0.044728 0.056751 0.488617 -0.870651 
0.032974 -0.001252 0.043963 0.001340 0.516071 -0.856545 
0.043143 0.076686 -0.029373 -0.992925 -0.098276 0.066647 
0.026554 -0.013882 0.033589 0.064514 0.620768 -0.781336 
0.031857 0.053292 0.010547 -0.012551 -0.707051 -0.707051 
0.012556 -0.006053 0.035215 -0.605218 -0.372316 0.703628 
0.015970 0.002806 0.042264 -0.525608 -0.382408 0.759934 
0.033246 -0.000401 0.046316 0.015186 -0.589498 0.807627 
0.019978 0.014197 0.049926 -0.532946 -0.321688 0.782614 
0.024879 0.014527 0.052774 -0.443130 -0.327259 0.834588 
0.048565 0.016601 0.051500 0.373112 -0.465990 0.802272 
0.029147 0.033571 0.061564 -0.403501 -0.267489 0.875007 
0.033469 0.038818 0.065005 -0.031327 -0.299484 0.953587 
0.037594 0.049817 0.068225 -0.147323 -0.071893 0.986472 
0.042581 0.049354 0.066900 -0.310292 0.110533 -0.944193 
0.053178 0.057546 0.061911 -0.887632 0.047576 -0.458089 
0.018479 -0.004698 0.037863 0.526955 0.437752 -0.728486 
0.020665 0.010148 0.046693 0.471979 0.359984 -0.804765 
0.023198 0.019869 0.052179 0.426811 0.336133 -0.839551 
0.024152 0.011275 0.049002 0.426345 0.369288 -0.825746 
-0.019590 0.029379 0.015862 -0.085090 0.156997 0.983927 
-0.023644 -0.012678 0.017071 0.133817 -0.235154 0.962702 
-0.032912 -0.018502 0.015628 -0.130938 -0.404078 0.905304 
-0.047334 -0.020265 0.008879 -0.622527 -0.548296 0.558419 
-0.035027 -0.011220 0.017484 -0.036776 -0.112558 0.992964 
-0.026049 -0.002788 0.018073 0.089562 -0.110498 0.989833 
-0.034387 0.006050 0.019443 0.127054 0.100931 0.986747 
-0.027525 0.020020 0.017410 0.095972 0.129147 0.986970 
0.003725 -0.006965 0.025362 -0.757590 -0.239982 0.607013 
0.002585 0.000901 0.026447 -0.803378 -0.151101 0.575979 
0.003227 0.022734 0.030230 -0.866890 0.036976 0.497126 
0.002597 0.032704 0.026206 -0.908442 0.243515 0.339754 
0.012530 0.054539 0.022211 -0.800232 0.589568 -0.109721 
0.008123 0.018069 0.038178 -0.817561 -0.124762 0.562165 
0.015451 0.061047 0.043357 -0.920694 0.346498 0.179613 
0.012545 0.018303 0.044081 -0.792807 -0.141839 0.592739 
0.010033 0.011162 0.039268 -0.754401 -0.162416 0.636004 
0.011607 0.009734 0.040664 -0.737734 -0.199513 0.644937 
0.016800 0.055059 0.051232 -0.792468 0.144763 0.592485 
0.016787 0.045064 0.053141 -0.806442 -0.043629 0.589702 
0.016839 0.028241 0.051069 -0.703145 -0.140027 0.697122 
0.018838 0.052619 0.054661 -0.820985 0.131181 0.555676 
0.023265 0.042920 0.060115 -0.599409 -0.109916 0.792861 
0.026614 0.046988 0.062654 -0.575644 0.043418 0.816547 
-0.000597 0.021617 0.023481 -0.856617 0.065894 0.511727 
0.012025 0.054314 0.015343 -0.818668 0.573207 0.034867 
-0.005019 -0.017230 0.014799 -0.361450 -0.232674 0.902893 
-0.007634 0.001096 0.016816 -0.488224 -0.101061 0.866847 
-0.001926 0.031700 0.018231 -0.636528 0.261913 0.725420 
0.006666 0.048662 0.015088 -0.606486 0.599728 0.522017 
-0.006612 -0.016702 0.014296 -0.203768 -0.203768 0.957579 
-0.005352 0.030582 0.015672 -0.398057 0.215920 0.891588 
-0.005838 0.031532 0.015205 -0.410488 0.251105 0.876610 
-0.013873 -0.001405 0.015156 0.027570 -0.109179 0.993640 
-0.014365 0.007013 0.015198 0.045425 0.036973 0.998283 
0.028626 0.075887 -0.002568 0.090535 -0.003195 -0.995888 
0.027951 0.077001 0.002151 -0.045058 0.987804 -0.149037 
0.013724 0.076009 0.009399 -0.121794 0.348959 0.929190 
0.014603 0.077566 0.008825 0.076189 0.362231 0.928969 
0.002918 0.086458 0.002257 0.117486 0.845611 0.520711 
0.020821 0.077878 0.002483 0.244938 0.960106 -0.134913 
0.023389 0.064822 0.011749 -0.461758 0.838005 0.290736 
0.021335 0.068560 0.008999 0.013535 0.053100 0.998497 
0.014909 0.057115 0.014946 -0.264358 0.854198 0.447728 
0.011547 0.061937 0.009242 -0.267127 0.272841 0.924230 
0.023479 0.065264 0.023073 -0.490670 0.808255 -0.325525 
0.022338 0.064670 0.023416 -0.624272 0.748815 -0.222621 
0.024549 0.070051 0.053355 0.027609 0.973532 0.226877 
0.020088 0.067936 0.048835 -0.872183 0.453063 0.184472 
0.028446 0.059209 0.063134 -0.582348 0.173948 0.794111 
0.028655 0.065144 0.061840 -0.649856 0.262167 0.713412 
0.030065 0.049351 0.065124 0.502233 -0.132473 0.854525 
0.032153 0.060245 0.063268 0.702446 0.322833 0.634310 
0.020500 0.065329 0.029555 -0.637834 0.720546 -0.271994 
-0.011359 0.055895 0.010703 0.012186 0.129614 0.991490 
-0.018000 0.053047 0.011263 0.304704 -0.346732 0.887092 
-0.013764 0.052981 0.010933 0.059820 -0.017841 0.998050 
-0.055646 0.034086 0.015254 -0.291694 0.183864 0.938674 
-0.065620 0.037839 0.008933 -0.731839 -0.318261 0.602596 
-0.067276 0.024417 -0.004387 -0.981576 -0.085933 0.170656 
-0.016779 0.047249 0.012017 -0.123355 0.440960 0.889009 
-0.025073 0.037688 0.014051 0.073280 0.286693 0.955216 
-0.023921 0.042246 0.013009 -0.062999 0.172355 0.983018 
-0.065961 0.016595 -0.000545 -0.978125 -0.094499 0.185316 
-0.067287 0.015273 -0.021660 -0.980949 0.179780 0.073601 
-0.068837 0.028232 -0.029664 -0.989323 -0.044709 0.138712 
-0.045903 0.046325 0.014703 -0.492925 -0.865796 0.086156 
-0.012392 -0.012118 0.014114 0.435049 0.011829 0.900329 
-0.039191 -0.022912 0.010600 0.000978 -0.999999 0.000978 
-0.042867 -0.022912 0.007957 0.000978 -0.999999 0.000978 
-0.037226 -0.022912 0.009087 0.000978 -0.999999 0.000978 
-0.060630 -0.009412 -0.007362 -0.905451 -0.399755 0.142669 
-0.060872 -0.016455 -0.023038 -0.037070 -0.325964 -0.944655 
-0.064893 -0.000587 -0.018560 -0.983598 -0.141204 0.112239 
-0.066030 0.003967 -0.022855 -0.965659 -0.170258 0.196251 
-0.065190 0.007864 -0.005649 -0.969224 -0.201015 0.142119 
-0.064991 0.002692 -0.015147 -0.985978 -0.162981 0.035833 
-0.067241 0.011480 -0.023796 -0.984726 -0.133461 0.111819 
-0.069064 0.041927 -0.029794 -0.987305 0.005629 0.158734 
-0.068524 0.034672 -0.023929 -0.998982 -0.042356 -0.015496 
-0.068604 0.047240 -0.017427 -0.999904 -0.012908 0.004965 
-0.068741 0.037822 -0.009872 -0.999538 0.023435 -0.019359 
-0.067186 0.067523 -0.013279 -0.997319 0.048414 0.054869 
-0.067904 0.056732 -0.011860 -0.997025 0.073735 0.022441 
-0.066697 0.069827 -0.009637 -0.950736 0.060303 0.304081 
-0.043254 0.059468 0.014706 -0.158059 0.279643 0.947004 
-0.050984 0.061652 0.012714 -0.173922 0.321408 0.930832 
-0.060721 0.061967 0.007961 -0.577996 0.317174 0.751878 
-0.032863 0.075175 0.003548 -0.424984 0.756438 0.497182 
0.008635 0.086450 -0.003695 0.020933 -0.000997 -0.999780 
-0.031058 0.078660 -0.001757 -0.109244 0.003245 -0.994010 
-0.027035 0.074753 0.009683 -0.445155 0.771276 0.454939 
-0.020907 0.080598 0.005500 -0.375722 0.822783 0.426452 
-0.039860 0.063899 0.013770 0.033004 0.253031 0.966895 
-0.032774 0.063975 0.013568 0.022893 0.242189 0.969959 
-0.011558 0.073118 0.010216 0.063419 0.239999 0.968699 
-0.024899 0.068916 0.012133 0.063152 0.236512 0.969574 
-0.063604 0.044735 0.011530 -0.873045 0.155953 0.462029 
-0.067216 0.060976 -0.007997 -0.981470 0.090989 0.168633 
-0.048385 -0.022022 -0.019545 0.953077 0.262596 -0.150626 
0.022123 0.063265 0.028468 0.001302 -0.902354 -0.430994 
-0.063381 0.010303 0.005671 -0.936644 -0.149479 0.316786 
-0.053274 0.018094 0.017132 -0.276389 0.030985 0.960546 
-0.054582 0.012253 0.016404 -0.573448 -0.137805 0.807569 
-0.056016 -0.008982 0.005575 -0.296776 0.497767 -0.814956 
-0.019381 0.037921 0.012496 0.065038 -0.159639 -0.985031 
-0.023428 0.037053 0.012044 0.190593 0.089763 -0.977557 
-0.019258 0.020264 0.015709 -0.159714 -0.106070 -0.981448 
-0.013119 0.047428 0.010763 0.050292 -0.236741 -0.970270 
-0.024149 0.041063 0.011666 0.066758 -0.144057 -0.987315 
-0.025487 0.046215 0.010824 -0.260037 0.051012 -0.964250 
-0.059624 0.007051 0.008606 0.919282 0.167526 -0.356169 
-0.026039 0.036455 0.012228 -0.047931 -0.239653 -0.969675 
-0.022577 0.036076 0.012269 0.001189 -0.246171 -0.969226 
-0.060810 0.004740 0.004386 0.914794 0.288501 -0.282702 
-0.025468 0.005886 0.016745 -0.149036 -0.110262 -0.982665 
-0.026228 0.012783 0.016141 -0.083523 -0.063478 -0.994482 
-0.034672 0.006917 0.017920 -0.058432 -0.073867 -0.995555 
-0.042144 -0.004249 0.016639 0.113243 0.222670 -0.968295 
-0.052160 -0.009121 0.009268 0.694669 0.366220 -0.619126 
-0.052214 0.020062 0.016112 0.225836 -0.025093 -0.973842 
-0.055351 -0.004123 0.008351 0.750940 0.345465 -0.562800 
-0.037997 0.033353 0.013874 -0.109676 -0.208007 -0.971959 
0.026783 0.050654 0.060145 0.651948 -0.018148 -0.758047 
0.018675 0.048008 0.052166 0.773599 -0.067457 -0.630074 
0.022482 0.063879 0.051980 0.771065 -0.249693 -0.585758 
0.021778 0.066046 0.048674 0.878948 -0.423858 -0.218622 
0.013040 0.045211 0.042380 0.940997 -0.061341 -0.332808 
0.018570 0.061032 0.029579 0.785254 -0.603468 0.138574 
0.010362 0.045102 0.032259 0.872654 -0.300022 -0.385308 
0.011596 0.040138 0.040340 0.872246 -0.097545 -0.479241 
0.026419 0.063157 0.018075 0.509032 -0.800814 0.315568 
0.012411 0.051219 0.020019 0.758027 -0.648710 0.067604 
-0.018796 -0.013120 0.012850 0.000978 0.000978 0.999999 
-0.016755 0.024007 0.012609 -0.685607 0.021031 -0.727668 
-0.004493 0.023475 0.015282 0.321938 -0.055596 -0.945127 
0.000458 0.038689 0.012816 0.410731 -0.303049 -0.859920 
-0.005313 0.042157 0.009541 0.012443 -0.157228 -0.987484 
-0.009862 0.032704 0.011000 0.012415 -0.156878 -0.987540 
0.021788 0.075324 0.000385 -0.258034 -0.966129 0.003600 
-0.024265 0.079260 -0.001888 -0.299484 -0.953587 0.031327 
0.027312 0.064192 0.010985 0.479294 -0.613832 -0.627286 
-0.014569 0.019072 0.012670 -0.072840 -0.081805 -0.993983 
-0.007442 0.047686 0.009731 -0.275120 0.075498 -0.958441 
0.021782 0.063036 0.029189 0.001217 -0.957524 -0.288352 
0.005616 0.070242 0.008976 -0.360649 0.894943 -0.262695 
-0.001171 0.076954 0.007274 0.039599 -0.482012 -0.875269 
-0.029573 0.059862 0.012891 -0.047902 -0.241968 -0.969101 
-0.020354 0.063891 0.011431 -0.047902 -0.241968 -0.969101 
-0.007917 0.082749 0.003988 -0.009201 -0.440346 -0.897781 
-0.039612 0.056355 0.013967 0.025272 -0.237074 -0.971163 
0.009472 0.081278 0.004874 -0.327282 -0.885319 -0.330298 
0.024959 0.069341 0.006229 -0.032399 -0.361568 -0.931783 
-0.067114 0.060696 -0.028099 0.995347 -0.078261 -0.056216 
-0.057478 0.055755 0.010255 0.536523 -0.261222 -0.802438 
-0.066995 0.030750 -0.010976 0.986848 0.160491 -0.019350 
-0.062155 0.054457 0.007147 0.854296 -0.173228 -0.490073 
-0.067128 0.040577 -0.009038 0.999025 -0.034164 0.027952 
-0.066905 0.042613 -0.006084 0.991390 -0.053496 -0.119513 
-0.066773 0.051296 -0.008972 0.996802 -0.076018 -0.024626 
-0.066975 0.039078 -0.024570 0.999714 0.011097 -0.021185 
-0.067392 0.037458 -0.027916 0.982571 0.012671 -0.185456 
-0.066671 0.016488 -0.027586 0.984919 0.001131 -0.173011 
-0.064405 0.006782 -0.018540 0.981588 0.149982 -0.118278 
-0.064805 0.006378 -0.023242 0.989969 0.129625 -0.056209 
0.006290 0.066301 0.007300 0.000978 0.000978 -0.999999 
-0.043662 -0.015500 -0.013069 0.000978 0.999999 0.000978 
-0.059620 -0.014945 -0.015893 0.946701 0.270292 -0.175214 
0.005491 -0.015500 0.018543 0.000978 0.999999 -0.000978 
-0.034004 -0.015500 0.012797 -0.000978 0.999999 -0.000978 
-0.020828 -0.012016 0.012000 0.000978 0.000978 -0.999999 
-0.062871 0.002681 -0.004531 0.980164 0.184914 -0.071307 
0.018170 0.031540 0.050229 0.742207 0.185936 -0.643861 
0.005756 0.038202 0.021836 0.837222 -0.270820 -0.475096 
0.007602 0.023350 0.033649 0.820769 -0.078782 -0.565801 
0.004721 0.010374 0.027333 0.794882 0.061364 -0.603653 
0.001572 0.012822 0.022522 0.881656 -0.001322 -0.471891 
-0.003638 0.021476 0.015820 0.592636 -0.073183 -0.802139 
-0.000770 0.022962 0.018672 0.734321 -0.038202 -0.677726 
-0.047255 0.034831 0.014544 -0.030436 0.249578 -0.967876 
-0.041167 0.040612 0.013715 -0.104597 -0.052861 -0.993109 
0.017411 0.017747 0.033693 0.813433 0.106226 -0.571877 
0.017210 0.028029 0.042462 0.553169 -0.436887 0.709319 
0.016757 0.033409 0.041890 -0.553169 0.436887 -0.709319 
0.011738 0.007332 0.029805 -0.553169 0.436887 -0.709319 
-0.045406 0.005897 0.008854 -0.173011 0.001131 -0.984919 
-0.044945 0.001907 0.009918 0.984919 0.001131 -0.173011 
-0.044522 0.040115 0.013415 0.053055 0.243065 0.968558 
-0.022578 0.051750 0.006013 -0.087863 0.001059 -0.996132 
-0.001737 0.066435 0.006354 -0.965726 0.258742 -0.020651 
0.003773 0.066816 0.005000 0.000978 0.000978 -0.999999 
-0.042666 -0.022912 -0.040259 0.000978 -0.999999 0.000978 
-0.044554 -0.005501 -0.046918 -0.311458 -0.173032 -0.934373 
-0.042403 -0.008539 -0.047058 -0.277450 -0.176311 -0.944424 
-0.046321 -0.009109 -0.045554 -0.407600 -0.181317 -0.894979 
-0.056752 -0.015345 -0.035897 -0.713775 -0.351171 -0.605974 
-0.053113 -0.014076 -0.040242 -0.523978 -0.267464 -0.808647 
-0.064760 -0.007711 -0.030207 -0.755381 -0.427667 -0.496487 
-0.049247 0.069993 -0.042268 0.265169 0.113644 -0.957481 
-0.051684 0.059965 -0.044050 0.235607 0.100611 -0.966626 
-0.045309 0.069515 -0.041573 0.130234 0.135103 -0.982235 
-0.055359 0.055491 -0.044880 -0.108825 0.048242 -0.992890 
-0.051241 0.043687 -0.045195 0.121237 0.048722 -0.991427 
-0.041928 0.059528 -0.043440 -0.300180 0.104468 -0.948145 
-0.046324 0.046470 -0.044445 0.037066 0.122429 -0.991785 
-0.039070 0.065969 -0.043900 -0.605786 0.145089 -0.782287 
-0.032842 0.077399 -0.047721 -0.674739 0.085982 -0.733031 
-0.035883 0.068712 -0.045865 -0.708844 0.086230 -0.700075 
-0.036492 0.055436 -0.046349 -0.402332 0.016927 -0.915337 
-0.032720 0.084184 -0.046442 -0.708229 0.210134 -0.673985 
-0.030004 0.095103 -0.045060 -0.351688 0.288833 -0.890444 
-0.030122 0.082306 -0.049150 -0.322895 0.037012 -0.945711 
-0.046667 0.039697 -0.045387 0.030601 0.141672 -0.989441 
-0.043319 0.043514 -0.044768 -0.240637 0.114528 -0.963835 
-0.034188 0.032719 -0.048556 -0.227867 0.060354 -0.971820 
-0.045589 0.015760 -0.047102 -0.311013 -0.006195 -0.950386 
-0.038823 0.015825 -0.048397 -0.185074 0.038901 -0.981954 
-0.031814 0.024561 -0.049562 -0.195091 0.034289 -0.980186 
-0.027509 -0.002785 -0.051329 -0.156536 0.007883 -0.987641 
-0.021139 0.082848 -0.047415 0.512760 0.071646 -0.855537 
-0.022596 0.098538 -0.043860 0.357223 0.285480 -0.889322 
-0.014079 0.002806 -0.052304 -0.292118 0.073351 -0.953565 
-0.013992 0.013908 -0.051594 -0.060016 0.062198 -0.996258 
-0.011539 0.021082 -0.051548 -0.153271 0.079606 -0.984973 
-0.009586 0.046128 -0.049549 -0.291673 0.084261 -0.952799 
-0.005693 0.072889 -0.049889 -0.504045 0.017567 -0.863499 
-0.006979 0.066908 -0.049390 -0.449025 0.064539 -0.891185 
-0.000919 0.079605 -0.051311 -0.386922 0.065603 -0.919776 
-0.011952 0.069843 -0.047195 -0.334986 0.080767 -0.938755 
-0.013590 0.036281 -0.049701 -0.245145 0.103962 -0.963896 
-0.015007 0.027827 -0.050554 -0.115973 0.067747 -0.990939 
-0.018814 0.070017 -0.047509 0.265336 0.048583 -0.962931 
-0.016090 0.046613 -0.048191 0.156586 0.105605 -0.982002 
